ncols         129
nrows         147
xllcorner     467968.683407
yllcorner     2628660.70129
cellsize      90.214450772628
NODATA_value  -9999
-9999 -9999 -9999 -9999 -9999 -9999 -9999 -9999 -9999 -9999 -9999 -9999 -9999 -9999 -9999 -9999 -9999 -9999 -9999 -9999 -9999 -9999 -9999 -9999 -9999 -9999 -9999 -9999 -9999 -9999 -9999 -9999 -9999 -9999 -9999 -9999 -9999 -9999 -9999 -9999 -9999 -9999 -9999 -9999 -9999 -9999 -9999 -9999 -9999 -9999 -9999 -9999 -9999 -9999 -9999 -9999 -9999 -9999 -9999 -9999 -9999 -9999 -9999 -9999 -9999 -9999 -9999 -9999 -9999 -9999 -9999 -9999 -9999 -9999 -9999 -9999 -9999 619 601 606 616 628 632 643 641 639 655 667 680 709 741 780 834 817 818 824 805 774 746 736 710 694 660 648 642 644 646 -9999 -9999 -9999 -9999 -9999 -9999 -9999 -9999 -9999 -9999 -9999 -9999 -9999 -9999 -9999 -9999 -9999 -9999 -9999 -9999 -9999 -9999
-9999 -9999 -9999 -9999 -9999 -9999 -9999 -9999 -9999 -9999 -9999 -9999 -9999 -9999 -9999 -9999 -9999 -9999 -9999 -9999 -9999 -9999 -9999 -9999 -9999 -9999 -9999 -9999 -9999 -9999 -9999 -9999 -9999 -9999 -9999 -9999 -9999 -9999 -9999 -9999 -9999 -9999 -9999 -9999 -9999 -9999 -9999 -9999 -9999 -9999 -9999 -9999 -9999 -9999 -9999 -9999 -9999 -9999 -9999 -9999 -9999 -9999 -9999 -9999 -9999 -9999 -9999 -9999 -9999 -9999 -9999 -9999 -9999 -9999 -9999 566 579 572 578 595 592 607 621 632 627 635 656 669 696 726 765 803 800 779 776 776 780 756 729 722 710 675 650 628 617 615 628 -9999 -9999 -9999 -9999 -9999 -9999 -9999 -9999 -9999 -9999 -9999 -9999 -9999 -9999 -9999 -9999 -9999 -9999 -9999 -9999 -9999 -9999
-9999 -9999 -9999 -9999 -9999 -9999 -9999 -9999 -9999 -9999 -9999 -9999 -9999 -9999 -9999 -9999 -9999 -9999 -9999 -9999 -9999 -9999 -9999 -9999 -9999 -9999 -9999 -9999 -9999 -9999 -9999 -9999 -9999 -9999 -9999 -9999 -9999 -9999 -9999 -9999 -9999 -9999 -9999 -9999 -9999 -9999 -9999 -9999 -9999 -9999 -9999 -9999 -9999 -9999 -9999 512 515 -9999 -9999 -9999 -9999 -9999 -9999 -9999 -9999 -9999 -9999 -9999 -9999 -9999 -9999 -9999 -9999 -9999 -9999 535 550 554 571 575 579 604 618 618 635 651 672 698 722 750 781 808 770 753 739 736 747 736 704 699 702 674 639 619 595 584 602 -9999 -9999 -9999 -9999 -9999 -9999 -9999 -9999 -9999 -9999 -9999 -9999 -9999 -9999 -9999 -9999 -9999 -9999 -9999 -9999 -9999 -9999
-9999 -9999 -9999 -9999 -9999 -9999 -9999 -9999 -9999 -9999 -9999 -9999 -9999 -9999 -9999 -9999 -9999 -9999 -9999 -9999 -9999 -9999 -9999 -9999 -9999 -9999 -9999 -9999 -9999 -9999 -9999 -9999 -9999 -9999 -9999 -9999 -9999 -9999 -9999 -9999 -9999 -9999 -9999 -9999 -9999 -9999 -9999 -9999 -9999 -9999 -9999 -9999 -9999 480 478 485 488 490 483 -9999 -9999 -9999 -9999 -9999 -9999 -9999 -9999 -9999 -9999 -9999 -9999 -9999 -9999 -9999 506 506 526 536 541 548 566 581 603 621 651 673 702 734 759 777 773 769 742 721 717 710 717 704 682 664 671 673 651 612 585 583 581 -9999 -9999 -9999 -9999 -9999 -9999 -9999 -9999 -9999 -9999 -9999 -9999 -9999 -9999 -9999 -9999 -9999 -9999 -9999 -9999 -9999 -9999
-9999 -9999 -9999 -9999 -9999 -9999 -9999 -9999 -9999 -9999 -9999 -9999 -9999 -9999 -9999 -9999 -9999 -9999 -9999 -9999 -9999 -9999 -9999 -9999 -9999 -9999 -9999 -9999 -9999 -9999 -9999 -9999 -9999 -9999 -9999 -9999 -9999 -9999 -9999 -9999 -9999 -9999 -9999 -9999 -9999 -9999 -9999 -9999 -9999 -9999 -9999 -9999 -9999 479 463 466 468 461 456 454 -9999 -9999 -9999 -9999 -9999 -9999 -9999 -9999 -9999 -9999 -9999 -9999 -9999 493 495 499 510 523 519 522 530 543 583 603 638 681 711 747 758 756 745 733 712 698 688 684 693 683 660 639 636 648 654 613 584 573 561 566 -9999 -9999 -9999 -9999 -9999 -9999 -9999 -9999 -9999 -9999 -9999 -9999 -9999 -9999 -9999 -9999 -9999 -9999 -9999 -9999 -9999
-9999 -9999 -9999 -9999 -9999 -9999 -9999 -9999 -9999 -9999 -9999 -9999 -9999 -9999 -9999 -9999 -9999 -9999 -9999 -9999 -9999 -9999 -9999 -9999 -9999 -9999 -9999 -9999 -9999 -9999 -9999 -9999 -9999 -9999 -9999 -9999 -9999 -9999 -9999 -9999 -9999 -9999 -9999 -9999 -9999 -9999 -9999 -9999 -9999 -9999 -9999 -9999 -9999 -9999 462 454 454 444 439 452 -9999 -9999 -9999 -9999 -9999 -9999 -9999 -9999 -9999 -9999 -9999 482 480 479 485 501 488 495 497 490 515 528 561 597 636 678 699 710 710 710 708 695 681 679 672 672 666 646 631 624 607 621 638 620 579 556 546 548 -9999 -9999 -9999 -9999 -9999 -9999 -9999 -9999 -9999 -9999 -9999 -9999 -9999 -9999 -9999 -9999 -9999 -9999 -9999 -9999 -9999
-9999 -9999 -9999 -9999 -9999 -9999 -9999 -9999 -9999 -9999 -9999 -9999 -9999 -9999 -9999 -9999 -9999 -9999 -9999 -9999 -9999 -9999 -9999 -9999 -9999 -9999 -9999 -9999 -9999 -9999 -9999 -9999 -9999 -9999 -9999 -9999 -9999 -9999 -9999 -9999 -9999 -9999 -9999 -9999 -9999 -9999 -9999 -9999 -9999 -9999 -9999 -9999 -9999 -9999 461 440 438 439 438 448 -9999 -9999 -9999 -9999 -9999 -9999 -9999 -9999 -9999 -9999 -9999 463 471 475 474 495 474 478 484 489 500 523 563 599 637 669 673 672 668 667 668 667 664 652 642 641 642 621 605 607 591 580 599 603 583 549 536 531 543 -9999 -9999 -9999 -9999 -9999 -9999 -9999 -9999 -9999 -9999 -9999 -9999 -9999 -9999 -9999 -9999 -9999 -9999 -9999 -9999
-9999 -9999 -9999 -9999 -9999 -9999 -9999 -9999 -9999 -9999 -9999 -9999 -9999 -9999 -9999 -9999 -9999 -9999 -9999 -9999 -9999 -9999 -9999 -9999 -9999 -9999 -9999 -9999 -9999 -9999 -9999 -9999 -9999 -9999 -9999 -9999 -9999 -9999 -9999 -9999 -9999 -9999 -9999 -9999 -9999 -9999 -9999 -9999 -9999 -9999 -9999 -9999 -9999 -9999 -9999 440 433 440 438 451 467 -9999 -9999 -9999 -9999 -9999 -9999 -9999 -9999 -9999 462 459 473 471 476 477 466 473 486 487 492 519 556 598 629 641 639 639 635 621 628 632 627 617 613 617 628 617 610 588 570 564 566 575 584 562 531 521 528 -9999 -9999 -9999 -9999 -9999 -9999 -9999 -9999 -9999 -9999 -9999 -9999 -9999 -9999 -9999 -9999 -9999 -9999 -9999 -9999
-9999 -9999 -9999 -9999 -9999 -9999 -9999 -9999 -9999 -9999 -9999 -9999 -9999 -9999 -9999 -9999 -9999 -9999 -9999 -9999 -9999 -9999 -9999 -9999 -9999 -9999 -9999 -9999 -9999 -9999 -9999 -9999 -9999 -9999 -9999 -9999 -9999 -9999 -9999 -9999 -9999 -9999 -9999 -9999 -9999 -9999 -9999 -9999 -9999 -9999 -9999 -9999 -9999 -9999 -9999 442 433 439 434 440 472 -9999 -9999 -9999 -9999 -9999 -9999 -9999 -9999 469 460 454 456 456 464 473 466 474 471 476 495 522 559 582 602 611 621 612 613 602 601 605 608 595 593 601 618 618 600 577 557 555 544 546 565 567 543 504 517 523 -9999 -9999 -9999 -9999 -9999 -9999 -9999 -9999 -9999 -9999 -9999 -9999 -9999 -9999 -9999 -9999 -9999 -9999 -9999
-9999 -9999 -9999 -9999 -9999 -9999 -9999 -9999 -9999 -9999 -9999 -9999 -9999 -9999 -9999 -9999 -9999 -9999 -9999 -9999 -9999 -9999 -9999 -9999 -9999 -9999 -9999 -9999 -9999 -9999 -9999 -9999 -9999 -9999 -9999 -9999 -9999 -9999 -9999 -9999 -9999 -9999 -9999 -9999 -9999 -9999 -9999 -9999 -9999 -9999 -9999 -9999 -9999 -9999 -9999 442 434 432 441 446 468 466 -9999 -9999 -9999 -9999 -9999 475 468 458 454 449 458 471 469 462 460 460 468 488 514 535 562 572 592 596 603 598 587 584 579 594 599 594 576 580 591 584 577 557 543 539 529 534 552 543 530 506 496 495 506 -9999 -9999 -9999 -9999 -9999 -9999 -9999 -9999 -9999 -9999 -9999 -9999 -9999 -9999 -9999 -9999 -9999 -9999
-9999 -9999 -9999 -9999 -9999 -9999 -9999 -9999 -9999 -9999 -9999 -9999 -9999 -9999 -9999 -9999 -9999 -9999 -9999 -9999 -9999 -9999 -9999 -9999 -9999 -9999 -9999 -9999 -9999 -9999 -9999 -9999 -9999 -9999 -9999 -9999 -9999 -9999 -9999 -9999 -9999 -9999 -9999 -9999 -9999 -9999 -9999 -9999 -9999 -9999 -9999 -9999 444 453 446 439 436 431 437 436 448 463 487 494 484 478 473 474 463 451 449 449 457 468 459 448 454 472 494 516 531 544 567 586 590 590 584 588 581 563 562 578 585 589 570 559 559 559 558 543 540 529 514 529 542 526 521 512 494 483 490 -9999 -9999 -9999 -9999 -9999 -9999 -9999 -9999 -9999 -9999 -9999 -9999 -9999 -9999 -9999 -9999 -9999 -9999
-9999 -9999 -9999 -9999 -9999 -9999 -9999 -9999 -9999 -9999 -9999 -9999 -9999 -9999 -9999 -9999 -9999 -9999 -9999 -9999 -9999 -9999 -9999 -9999 -9999 -9999 -9999 -9999 -9999 -9999 -9999 -9999 -9999 -9999 -9999 -9999 -9999 -9999 -9999 -9999 -9999 -9999 -9999 -9999 -9999 -9999 -9999 -9999 -9999 -9999 -9999 430 428 433 427 433 443 431 431 435 443 461 471 472 466 471 460 458 453 449 452 462 473 457 448 448 465 486 515 540 558 562 575 589 581 575 570 571 582 572 562 559 566 562 559 542 541 537 551 549 530 510 503 522 531 524 505 502 493 491 482 482 -9999 -9999 -9999 -9999 -9999 -9999 -9999 -9999 -9999 -9999 -9999 -9999 -9999 -9999 -9999 -9999 -9999
-9999 -9999 -9999 -9999 -9999 -9999 -9999 -9999 -9999 -9999 -9999 -9999 -9999 -9999 -9999 -9999 -9999 -9999 -9999 -9999 -9999 -9999 -9999 -9999 -9999 -9999 -9999 -9999 -9999 -9999 -9999 -9999 -9999 -9999 -9999 -9999 -9999 -9999 -9999 -9999 -9999 -9999 -9999 -9999 -9999 -9999 -9999 -9999 -9999 417 415 409 411 416 414 430 446 440 437 431 437 448 446 448 452 464 456 453 461 468 449 452 465 455 448 470 487 505 520 542 563 554 563 568 567 564 555 562 581 576 566 551 547 546 549 532 520 516 522 530 522 518 505 495 500 507 502 480 477 477 469 480 474 -9999 -9999 -9999 -9999 -9999 -9999 -9999 -9999 -9999 -9999 -9999 -9999 -9999 -9999 -9999 -9999
-9999 -9999 -9999 -9999 -9999 -9999 -9999 -9999 -9999 -9999 -9999 -9999 -9999 -9999 -9999 -9999 -9999 -9999 -9999 -9999 -9999 -9999 -9999 -9999 -9999 -9999 -9999 -9999 -9999 -9999 -9999 -9999 -9999 -9999 -9999 -9999 -9999 -9999 -9999 -9999 -9999 -9999 -9999 -9999 -9999 -9999 -9999 -9999 -9999 409 410 407 409 407 418 435 449 443 432 431 434 431 438 439 454 465 474 478 483 477 456 443 448 438 449 482 498 518 538 546 542 538 536 549 555 551 554 555 567 563 555 530 539 544 539 524 510 494 500 514 504 510 509 491 482 492 498 476 467 469 467 468 452 449 449 -9999 -9999 -9999 -9999 -9999 -9999 -9999 -9999 -9999 -9999 -9999 -9999 -9999 -9999
-9999 -9999 -9999 -9999 -9999 -9999 -9999 -9999 -9999 -9999 -9999 -9999 -9999 -9999 -9999 -9999 -9999 -9999 -9999 -9999 -9999 -9999 -9999 -9999 -9999 -9999 -9999 -9999 -9999 -9999 -9999 -9999 -9999 -9999 -9999 -9999 -9999 -9999 -9999 -9999 -9999 -9999 -9999 -9999 -9999 -9999 -9999 -9999 417 405 402 398 405 399 408 426 445 447 436 431 431 431 432 431 451 472 483 490 478 458 463 445 434 442 461 494 514 542 561 558 548 544 525 526 537 541 539 540 553 544 533 519 531 531 531 522 509 491 491 492 491 491 495 500 479 470 480 486 464 454 452 453 439 429 440 -9999 -9999 -9999 -9999 -9999 -9999 -9999 -9999 -9999 -9999 -9999 -9999 -9999 -9999
-9999 -9999 -9999 -9999 -9999 -9999 -9999 -9999 -9999 -9999 -9999 -9999 -9999 -9999 -9999 -9999 -9999 -9999 -9999 -9999 -9999 -9999 -9999 -9999 -9999 -9999 -9999 -9999 -9999 -9999 -9999 -9999 -9999 -9999 -9999 -9999 -9999 -9999 -9999 -9999 -9999 -9999 -9999 -9999 -9999 -9999 -9999 422 412 402 397 402 404 399 406 428 444 457 447 448 442 432 431 419 434 455 469 463 444 433 437 434 439 453 463 494 522 554 568 559 548 543 530 517 514 514 526 523 521 527 534 506 522 526 517 513 506 490 482 476 487 491 482 477 479 470 480 486 464 454 452 453 439 429 440 450 438 435 -9999 -9999 -9999 -9999 -9999 -9999 -9999 -9999 -9999 -9999 -9999
-9999 -9999 -9999 -9999 -9999 -9999 -9999 -9999 -9999 -9999 -9999 -9999 -9999 -9999 -9999 -9999 -9999 -9999 -9999 -9999 -9999 -9999 -9999 -9999 -9999 -9999 -9999 -9999 -9999 -9999 -9999 -9999 -9999 -9999 -9999 -9999 -9999 -9999 -9999 -9999 -9999 -9999 -9999 -9999 -9999 -9999 -9999 431 421 404 397 397 399 405 412 414 436 459 467 452 447 435 426 414 421 435 443 436 418 427 437 433 456 476 487 517 520 543 556 547 536 529 526 511 512 510 514 508 502 518 534 506 522 526 517 513 506 490 482 476 487 491 482 477 469 456 473 478 459 458 441 438 439 425 434 429 420 427 422 427 -9999 -9999 -9999 -9999 -9999 -9999 -9999 -9999 -9999
-9999 -9999 -9999 -9999 -9999 -9999 -9999 -9999 -9999 -9999 -9999 -9999 -9999 -9999 -9999 -9999 -9999 -9999 -9999 -9999 -9999 -9999 -9999 -9999 -9999 613 584 -9999 -9999 -9999 -9999 -9999 -9999 -9999 -9999 -9999 -9999 -9999 -9999 -9999 -9999 -9999 -9999 -9999 -9999 -9999 -9999 432 418 400 396 389 388 394 403 419 441 464 481 460 442 438 422 402 405 419 424 424 407 417 419 443 469 486 499 533 520 543 556 547 536 529 526 511 512 510 514 508 502 518 517 495 510 522 512 506 508 501 487 469 467 470 467 467 471 468 455 464 463 459 438 422 435 424 426 426 410 404 412 426 -9999 -9999 -9999 -9999 -9999 -9999 -9999 -9999 -9999
-9999 -9999 -9999 -9999 -9999 -9999 -9999 -9999 -9999 -9999 -9999 -9999 -9999 -9999 -9999 -9999 -9999 -9999 -9999 -9999 -9999 -9999 590 601 609 584 557 542 536 512 495 482 472 461 463 -9999 -9999 -9999 -9999 -9999 -9999 -9999 -9999 -9999 -9999 -9999 -9999 432 423 410 397 398 388 396 413 431 450 470 487 465 438 426 416 402 405 419 424 424 407 417 419 443 469 486 499 533 533 544 558 547 535 524 514 501 499 515 517 514 497 507 493 496 510 506 508 515 512 499 482 481 474 467 467 470 484 475 469 449 463 453 435 418 417 411 406 413 414 395 406 414 413 -9999 -9999 -9999 -9999 -9999 -9999 -9999 -9999
-9999 -9999 -9999 -9999 -9999 -9999 -9999 -9999 -9999 -9999 -9999 -9999 -9999 -9999 -9999 -9999 -9999 -9999 -9999 613 597 584 579 589 578 557 548 509 500 498 492 481 460 455 452 458 460 451 -9999 -9999 -9999 -9999 -9999 -9999 -9999 -9999 -9999 433 433 411 409 398 388 396 413 431 450 470 487 465 438 426 416 402 396 402 426 419 398 411 440 472 484 500 507 542 553 555 559 546 542 534 517 498 499 499 501 496 495 485 480 500 512 508 506 506 511 500 500 499 479 473 467 469 468 476 480 439 455 462 438 442 430 411 391 398 407 395 402 408 402 415 -9999 -9999 -9999 -9999 -9999 -9999 -9999
-9999 -9999 -9999 -9999 -9999 -9999 -9999 -9999 -9999 -9999 -9999 -9999 -9999 -9999 -9999 -9999 -9999 -9999 -9999 588 573 569 567 564 555 540 529 480 475 482 489 483 466 463 446 440 448 444 -9999 -9999 -9999 -9999 -9999 -9999 -9999 -9999 429 433 433 411 409 406 386 393 407 430 453 474 498 460 435 423 413 407 396 403 410 399 396 420 451 483 495 509 526 538 558 574 571 563 544 524 506 498 499 491 491 503 499 480 483 508 516 517 505 502 507 507 504 495 482 480 468 464 456 463 466 432 435 448 453 441 432 409 396 388 391 389 389 393 395 403 -9999 -9999 -9999 -9999 -9999 -9999 -9999
-9999 -9999 -9999 -9999 -9999 -9999 -9999 -9999 -9999 -9999 -9999 -9999 -9999 -9999 -9999 -9999 -9999 -9999 -9999 574 559 557 562 548 540 525 526 480 475 482 489 483 466 463 446 440 448 444 448 444 -9999 -9999 -9999 -9999 -9999 429 426 416 423 415 402 404 385 394 413 427 439 469 492 466 447 439 418 400 396 396 396 396 401 439 459 483 513 529 542 560 568 579 574 559 537 520 508 497 480 490 490 485 475 475 501 505 511 506 508 501 505 516 507 496 485 474 475 478 463 455 461 432 426 434 449 425 410 415 410 407 388 386 391 400 399 400 420 -9999 -9999 -9999 -9999 -9999 -9999
-9999 -9999 -9999 -9999 -9999 -9999 -9999 -9999 -9999 -9999 -9999 -9999 -9999 -9999 -9999 -9999 -9999 -9999 -9999 -9999 559 557 562 548 540 525 526 489 469 464 475 468 463 459 438 433 433 433 436 432 435 434 428 422 431 426 411 403 409 405 395 386 384 406 412 423 438 452 477 457 438 433 417 402 396 396 396 409 425 432 445 476 512 538 564 582 591 591 589 577 539 520 507 491 484 479 479 467 479 491 498 497 485 496 500 499 492 497 502 502 491 482 478 465 456 452 449 428 426 430 435 419 421 429 421 411 384 384 397 406 399 403 -9999 -9999 -9999 -9999 -9999 -9999 -9999
-9999 -9999 -9999 -9999 -9999 -9999 -9999 -9999 -9999 -9999 -9999 -9999 -9999 -9999 -9999 -9999 -9999 -9999 -9999 -9999 552 564 559 541 531 520 516 478 469 450 449 449 450 452 440 440 437 426 421 415 410 414 413 421 421 410 407 397 408 405 396 387 384 393 405 411 419 444 461 443 431 414 407 396 396 396 409 417 435 439 451 466 497 529 548 587 594 584 590 585 554 537 513 494 483 477 462 463 484 487 481 471 488 506 513 501 499 492 500 501 501 501 489 467 471 464 453 430 426 426 428 436 429 439 433 416 390 383 393 411 410 413 -9999 -9999 -9999 -9999 -9999 -9999 -9999
-9999 -9999 -9999 -9999 -9999 -9999 -9999 -9999 -9999 -9999 -9999 -9999 -9999 -9999 -9999 -9999 -9999 -9999 -9999 549 558 566 553 531 521 503 497 460 442 428 438 433 434 438 437 434 428 425 425 401 396 406 414 403 410 395 399 391 403 395 397 395 384 396 400 399 420 439 441 413 406 395 396 396 411 405 403 416 441 460 473 489 495 505 523 570 574 572 560 552 543 526 501 485 474 457 453 458 472 469 464 470 484 493 500 502 496 488 496 512 519 517 508 490 493 498 493 459 447 429 426 438 441 455 450 428 407 383 383 399 405 401 -9999 -9999 -9999 -9999 -9999 -9999 -9999
-9999 -9999 -9999 -9999 -9999 -9999 -9999 -9999 -9999 -9999 -9999 -9999 -9999 -9999 -9999 -9999 -9999 -9999 540 542 538 541 538 523 511 492 479 445 429 419 413 416 409 411 423 416 401 401 412 401 389 398 412 388 399 391 394 398 388 387 403 395 384 384 396 406 414 418 415 382 382 391 403 414 432 420 414 424 443 465 468 463 466 481 506 540 550 556 547 538 520 505 488 472 464 461 466 451 452 450 452 465 471 477 471 474 469 477 487 504 526 539 537 527 526 531 518 473 448 437 434 425 432 452 466 436 423 393 383 383 401 411 416 -9999 -9999 -9999 -9999 -9999 -9999
-9999 -9999 -9999 -9999 -9999 -9999 -9999 -9999 -9999 -9999 -9999 -9999 -9999 -9999 -9999 -9999 -9999 -9999 510 510 501 516 518 515 504 488 466 423 414 401 401 397 390 408 406 405 389 392 391 387 393 394 399 383 386 386 379 385 385 386 400 395 384 388 393 412 414 405 395 382 384 387 407 426 442 441 431 435 448 454 451 437 446 470 496 520 527 543 549 532 513 500 483 473 475 475 473 451 451 435 432 445 457 457 456 451 443 449 474 514 542 544 542 547 544 533 527 478 457 453 451 428 420 444 468 464 440 406 394 383 398 409 402 400 -9999 -9999 -9999 -9999 -9999
-9999 -9999 -9999 -9999 -9999 -9999 -9999 -9999 -9999 -9999 -9999 -9999 -9999 -9999 -9999 -9999 -9999 -9999 492 473 480 489 491 502 501 479 462 421 405 395 386 378 386 393 383 388 383 387 377 375 385 393 393 381 369 377 361 366 382 383 391 375 388 385 382 396 407 394 389 366 367 389 415 429 452 463 440 431 432 437 435 430 448 459 471 508 521 531 542 531 506 498 488 478 469 472 470 458 462 439 425 443 447 441 449 426 425 449 484 512 511 505 516 521 524 516 507 486 462 449 443 429 414 437 464 469 455 436 404 384 383 388 385 397 -9999 -9999 -9999 -9999 -9999
-9999 -9999 -9999 -9999 -9999 -9999 -9999 -9999 -9999 -9999 -9999 -9999 -9999 -9999 -9999 -9999 -9999 -9999 487 469 467 469 475 492 487 462 448 420 398 385 374 369 367 370 367 381 378 375 370 366 390 388 397 375 360 353 351 367 386 381 367 374 394 382 367 375 388 378 373 346 369 407 425 441 454 456 435 419 423 424 441 428 439 452 470 501 504 515 527 524 508 492 477 472 461 461 461 466 462 448 448 420 418 429 437 417 423 453 486 486 479 483 492 504 514 506 491 474 469 446 420 400 389 418 442 451 451 439 424 394 374 382 383 423 -9999 -9999 -9999 -9999 -9999
-9999 -9999 -9999 -9999 -9999 -9999 -9999 -9999 -9999 -9999 -9999 -9999 -9999 -9999 -9999 -9999 -9999 471 469 459 458 461 458 470 472 449 437 410 387 373 360 352 347 350 349 369 377 369 356 365 367 370 377 376 372 354 338 369 383 375 364 373 378 371 352 355 362 346 338 355 386 421 441 446 433 434 425 414 414 428 437 424 426 435 457 488 489 503 516 511 506 498 489 475 469 466 468 476 462 455 444 414 406 416 416 409 430 459 471 463 466 469 472 482 499 505 489 450 456 436 396 371 373 403 410 409 415 405 404 385 374 391 403 441 -9999 -9999 -9999 -9999 -9999
-9999 -9999 -9999 -9999 -9999 -9999 -9999 -9999 -9999 -9999 -9999 -9999 -9999 -9999 -9999 -9999 473 463 460 447 451 453 444 455 456 446 429 405 397 383 359 341 336 334 347 360 363 379 372 356 350 362 367 359 354 339 337 360 378 370 355 358 354 351 340 329 321 312 332 384 409 428 438 444 429 424 416 404 409 422 420 411 420 419 444 482 491 500 501 487 486 486 487 481 470 466 476 465 451 448 439 414 404 397 393 409 428 449 441 432 444 442 464 479 500 506 480 427 424 417 387 350 349 363 371 398 390 375 381 374 374 402 426 -9999 -9999 -9999 -9999 -9999 -9999
-9999 -9999 -9999 -9999 -9999 -9999 -9999 -9999 -9999 -9999 -9999 -9999 -9999 -9999 -9999 -9999 485 471 459 446 443 441 436 441 450 448 428 396 392 383 369 351 335 331 339 346 351 368 376 365 347 349 358 343 331 323 338 348 361 364 344 334 327 318 316 313 312 338 365 407 416 437 442 434 422 419 407 398 397 406 409 409 414 427 436 481 497 505 504 485 476 477 485 485 479 477 472 463 444 431 418 414 412 386 389 410 441 429 416 420 420 421 452 484 502 504 486 430 398 390 365 339 338 359 373 375 372 381 379 374 389 404 -9999 -9999 -9999 -9999 -9999 -9999 -9999
-9999 -9999 -9999 -9999 -9999 -9999 -9999 -9999 -9999 -9999 -9999 -9999 -9999 -9999 -9999 -9999 -9999 488 479 457 441 435 435 442 451 446 427 402 389 384 376 368 349 340 329 336 347 357 368 364 362 340 333 310 313 332 333 338 357 361 341 317 301 291 302 309 328 354 367 413 423 435 449 434 425 427 423 399 396 396 412 420 432 453 454 470 486 497 492 479 463 469 477 481 484 484 470 453 436 420 399 390 383 401 419 439 436 403 386 386 388 418 456 488 500 493 475 432 386 382 370 350 335 343 356 361 374 375 374 374 391 414 -9999 -9999 -9999 -9999 -9999 -9999 -9999
-9999 -9999 -9999 -9999 -9999 -9999 -9999 -9999 -9999 -9999 -9999 -9999 -9999 -9999 -9999 -9999 -9999 -9999 475 455 448 438 435 436 446 437 415 398 403 392 371 367 360 350 338 329 329 339 352 364 368 346 320 299 312 316 325 331 351 357 341 317 291 302 327 338 350 363 373 410 420 421 447 436 440 441 428 406 396 400 411 423 443 467 471 462 479 475 453 448 446 468 477 477 485 477 462 436 416 401 375 383 400 413 419 422 409 391 366 359 386 417 446 462 476 465 445 425 403 397 389 355 325 326 332 343 345 348 354 378 390 394 -9999 -9999 -9999 -9999 -9999 -9999 -9999
-9999 -9999 -9999 -9999 -9999 -9999 -9999 -9999 -9999 -9999 -9999 -9999 -9999 -9999 -9999 -9999 -9999 -9999 -9999 462 457 448 435 435 436 433 422 405 419 398 370 365 351 352 348 336 329 329 333 351 364 349 327 289 273 280 270 299 313 340 316 302 291 325 348 357 361 367 376 402 411 411 426 442 436 436 414 396 396 407 419 424 445 471 482 475 479 473 457 438 432 457 459 454 467 453 436 422 403 384 367 377 395 386 391 392 371 360 344 367 391 408 419 455 468 456 428 424 400 377 381 361 332 318 318 321 336 353 381 411 418 406 -9999 -9999 -9999 -9999 -9999 -9999 -9999
-9999 -9999 -9999 -9999 -9999 -9999 -9999 -9999 -9999 -9999 -9999 -9999 -9999 -9999 -9999 -9999 -9999 -9999 -9999 -9999 460 454 437 422 421 424 424 418 420 416 382 367 362 356 361 341 329 329 329 323 332 318 324 298 269 247 259 269 285 315 294 279 295 338 340 350 363 371 385 398 401 398 412 426 432 413 396 405 406 401 416 426 442 460 471 465 464 463 452 439 431 438 438 438 437 426 422 407 380 357 354 355 356 360 378 367 345 330 342 366 393 411 440 457 456 440 419 404 395 366 354 345 324 318 318 324 350 374 408 435 432 411 -9999 -9999 -9999 -9999 -9999 -9999 -9999
-9999 -9999 -9999 -9999 -9999 -9999 -9999 -9999 -9999 -9999 -9999 -9999 -9999 -9999 -9999 -9999 -9999 -9999 -9999 -9999 462 460 450 437 425 409 405 424 418 418 392 380 375 364 351 329 333 349 358 339 320 298 294 295 276 250 244 256 266 285 277 281 312 334 328 355 375 380 381 401 402 389 389 410 412 397 396 421 417 403 420 435 446 464 477 444 447 435 430 438 420 421 422 410 403 401 401 396 383 348 325 325 336 348 353 345 320 319 347 378 405 432 456 442 417 401 404 386 384 354 326 321 318 318 330 347 375 410 441 459 448 422 -9999 -9999 -9999 -9999 -9999 -9999 -9999
-9999 -9999 -9999 -9999 -9999 -9999 -9999 -9999 -9999 -9999 -9999 -9999 -9999 -9999 -9999 -9999 -9999 -9999 -9999 -9999 475 467 459 443 437 426 405 408 406 410 413 397 381 370 341 333 356 360 374 363 336 301 285 290 284 260 256 244 246 253 257 286 320 312 330 354 381 377 378 399 398 393 385 385 384 384 405 427 419 415 424 436 450 472 484 440 426 425 428 436 419 427 421 405 381 373 360 383 389 351 329 309 318 323 321 313 306 326 352 370 397 423 451 432 396 382 382 363 372 345 320 318 318 318 339 357 405 436 460 464 451 433 -9999 -9999 -9999 -9999 -9999 -9999 -9999
-9999 -9999 -9999 -9999 -9999 -9999 -9999 -9999 -9999 -9999 -9999 -9999 -9999 -9999 -9999 -9999 -9999 -9999 -9999 -9999 485 475 471 465 434 422 408 405 402 405 400 391 385 362 347 355 367 379 377 356 338 327 304 277 268 263 262 258 242 223 219 278 307 314 346 360 383 387 390 395 401 395 383 369 378 388 404 418 422 429 444 452 449 462 473 437 419 418 425 418 401 406 394 374 355 336 342 384 399 374 349 301 291 293 294 306 313 322 339 363 390 425 446 426 418 397 373 346 358 334 318 318 318 322 335 359 388 423 446 457 455 -9999 -9999 -9999 -9999 -9999 -9999 -9999 -9999
-9999 -9999 -9999 -9999 -9999 -9999 -9999 -9999 -9999 -9999 -9999 -9999 -9999 -9999 -9999 -9999 -9999 -9999 -9999 -9999 494 482 473 459 444 434 429 409 402 397 389 381 367 357 358 378 389 386 381 369 363 347 324 291 283 282 261 252 235 210 245 273 308 332 351 356 369 386 392 403 396 389 368 368 390 391 390 407 421 440 449 440 431 443 466 439 410 394 390 377 377 383 367 355 333 333 359 395 408 396 360 321 307 287 292 309 320 334 343 378 410 428 413 391 400 400 366 328 337 318 321 338 330 337 362 379 386 416 443 460 -9999 -9999 -9999 -9999 -9999 -9999 -9999 -9999 -9999
-9999 -9999 -9999 -9999 -9999 -9999 -9999 -9999 -9999 -9999 -9999 -9999 -9999 -9999 -9999 -9999 -9999 -9999 -9999 522 502 492 488 472 468 447 441 406 394 392 410 407 397 391 378 393 390 387 381 375 369 351 327 299 301 288 252 235 210 210 230 278 303 322 337 341 357 374 387 409 386 381 368 368 381 399 401 405 418 430 434 415 419 428 449 434 415 399 383 367 354 349 345 350 333 341 361 382 385 385 369 343 323 288 287 302 332 357 370 394 411 404 371 360 384 391 368 309 311 324 344 372 364 352 382 405 407 423 444 464 -9999 -9999 -9999 -9999 -9999 -9999 -9999 -9999 -9999
-9999 -9999 -9999 -9999 -9999 -9999 -9999 -9999 -9999 -9999 -9999 -9999 -9999 -9999 -9999 -9999 -9999 -9999 -9999 526 512 507 496 480 469 460 440 403 399 407 422 422 410 401 396 396 393 380 383 384 374 347 326 292 290 284 257 232 212 210 238 271 293 313 330 347 364 384 392 406 387 368 370 380 386 407 414 418 417 426 422 402 406 410 430 414 407 403 385 369 342 322 322 332 327 327 358 366 356 364 363 326 301 285 285 307 340 374 391 383 376 367 336 332 354 361 350 307 320 334 352 373 376 381 400 423 425 447 472 490 -9999 -9999 -9999 -9999 -9999 -9999 -9999 -9999 -9999
-9999 -9999 -9999 -9999 -9999 -9999 -9999 -9999 -9999 -9999 -9999 -9999 -9999 -9999 -9999 -9999 -9999 -9999 532 512 502 500 480 469 451 443 429 412 404 417 431 428 410 417 405 386 383 380 382 387 371 346 326 277 265 255 242 243 231 210 228 254 281 306 333 350 362 377 381 401 374 368 384 392 399 410 412 409 411 422 414 403 393 392 398 393 378 382 369 355 343 331 326 319 306 325 343 350 336 327 330 296 285 285 289 318 357 383 401 364 332 331 315 318 339 333 320 307 341 341 334 343 370 397 416 428 448 475 504 -9999 -9999 -9999 -9999 -9999 -9999 -9999 -9999 -9999 -9999
-9999 -9999 -9999 -9999 -9999 -9999 -9999 -9999 -9999 -9999 -9999 -9999 -9999 -9999 -9999 -9999 -9999 532 519 492 482 477 473 457 437 429 430 414 410 417 423 416 422 423 405 390 380 380 388 384 360 338 313 277 275 262 231 219 212 210 211 238 281 305 320 346 363 376 373 370 357 374 393 406 413 405 384 386 398 407 417 417 401 387 378 377 363 358 364 357 368 369 349 328 306 300 313 332 339 305 298 285 285 285 294 320 346 370 393 367 319 303 303 313 309 305 292 311 345 355 337 344 368 392 398 403 437 470 497 -9999 -9999 -9999 -9999 -9999 -9999 -9999 -9999 -9999 -9999
-9999 -9999 -9999 -9999 -9999 -9999 -9999 -9999 -9999 -9999 -9999 -9999 -9999 -9999 -9999 -9999 -9999 513 505 486 472 467 450 443 445 444 438 430 428 433 431 424 424 419 414 390 385 380 388 382 362 324 308 297 282 249 226 229 232 215 210 225 267 297 312 333 362 369 358 357 364 390 401 411 395 377 371 381 395 411 422 413 393 375 362 378 358 341 340 353 375 376 362 343 317 290 310 331 315 289 285 285 285 285 285 303 321 365 383 371 339 321 295 291 302 292 303 316 339 369 369 356 351 371 378 399 429 452 488 -9999 -9999 -9999 -9999 -9999 -9999 -9999 -9999 -9999 -9999
-9999 -9999 -9999 -9999 -9999 -9999 -9999 -9999 -9999 -9999 -9999 -9999 -9999 -9999 -9999 -9999 -9999 496 491 481 463 454 452 455 458 447 444 444 445 443 442 433 412 403 407 392 379 378 390 378 357 347 330 289 262 244 241 251 253 229 210 214 253 296 296 301 339 357 353 393 403 412 409 400 384 370 369 384 394 414 420 416 392 364 356 377 373 341 330 356 373 357 352 333 311 288 303 322 299 285 297 298 290 285 285 289 288 324 361 351 327 306 280 282 289 305 342 335 328 354 379 373 366 383 391 394 413 440 481 501 -9999 -9999 -9999 -9999 -9999 -9999 -9999 -9999 -9999
-9999 -9999 -9999 -9999 -9999 -9999 -9999 -9999 -9999 -9999 -9999 -9999 -9999 -9999 -9999 -9999 -9999 496 476 468 455 452 462 466 471 457 455 456 451 456 458 440 417 401 394 389 375 376 385 373 364 361 342 295 270 272 271 280 275 247 210 210 239 277 269 291 325 332 368 397 407 405 396 386 370 359 384 404 409 408 404 401 400 385 344 360 366 333 327 354 369 350 336 341 323 287 289 299 285 293 333 348 325 305 296 285 279 289 319 317 295 268 268 284 305 330 360 350 340 352 378 390 388 400 413 411 429 454 484 512 -9999 -9999 -9999 -9999 -9999 -9999 -9999 -9999 -9999
-9999 -9999 -9999 -9999 -9999 -9999 -9999 -9999 -9999 -9999 -9999 -9999 -9999 -9999 -9999 -9999 500 490 484 473 461 464 470 487 485 477 469 485 480 472 463 445 417 413 396 382 376 373 373 376 374 368 341 318 287 284 287 294 267 235 214 210 242 250 264 302 329 329 368 385 386 383 385 374 355 367 388 400 395 387 393 393 380 388 333 339 332 327 327 354 373 350 315 323 317 290 285 285 291 312 386 400 371 340 328 315 290 279 287 280 268 268 292 319 334 353 386 380 385 387 401 420 425 434 446 448 455 484 510 524 -9999 -9999 -9999 -9999 -9999 -9999 -9999 -9999 -9999
-9999 -9999 -9999 -9999 -9999 -9999 -9999 -9999 -9999 -9999 -9999 -9999 -9999 -9999 -9999 -9999 496 487 483 470 469 478 481 485 481 481 476 494 498 490 471 450 428 409 399 388 373 373 378 386 384 376 353 328 300 314 313 285 259 242 214 199 211 246 275 298 311 334 362 377 389 373 369 364 354 377 388 393 379 369 363 369 358 372 340 331 331 336 327 341 355 337 314 309 296 287 294 313 327 339 412 403 362 334 318 307 282 265 273 265 276 299 328 355 366 381 413 415 420 426 420 428 430 433 470 492 509 521 525 529 -9999 -9999 -9999 -9999 -9999 -9999 -9999 -9999 -9999
-9999 -9999 -9999 -9999 -9999 -9999 -9999 -9999 -9999 -9999 -9999 -9999 -9999 -9999 -9999 -9999 504 494 488 485 485 484 472 466 460 452 471 501 494 486 467 452 439 413 394 373 373 377 385 388 373 383 358 324 321 330 321 304 296 251 208 199 212 238 267 293 309 327 351 373 376 357 342 339 351 368 390 389 371 360 351 347 346 359 357 345 341 333 319 328 339 328 304 294 294 301 313 336 361 386 417 392 353 317 291 285 273 265 269 265 296 326 350 354 358 381 387 390 398 403 385 396 386 395 453 505 520 509 512 528 -9999 -9999 -9999 -9999 -9999 -9999 -9999 -9999 -9999
-9999 -9999 -9999 -9999 -9999 -9999 -9999 -9999 -9999 -9999 -9999 -9999 -9999 -9999 -9999 511 503 483 480 483 477 462 452 448 439 431 467 482 469 467 452 452 437 412 395 384 377 383 378 378 373 384 359 349 349 349 338 318 291 250 223 199 211 235 274 289 302 321 361 377 371 349 333 353 365 372 384 383 363 351 347 343 343 344 367 362 364 345 314 306 311 302 294 298 319 332 338 349 375 392 401 386 358 326 292 268 265 265 265 274 304 318 322 318 344 360 353 354 384 376 353 360 376 415 445 486 503 487 496 523 553 -9999 -9999 -9999 -9999 -9999 -9999 -9999 -9999
-9999 -9999 -9999 -9999 -9999 -9999 -9999 -9999 -9999 -9999 -9999 -9999 -9999 -9999 495 497 492 473 465 469 464 449 440 437 431 430 450 467 460 459 468 467 449 424 405 391 381 371 368 373 379 386 380 372 365 347 331 312 290 265 223 199 210 241 267 284 306 329 357 362 361 333 337 374 385 381 372 371 363 343 343 357 349 343 367 382 377 349 322 306 299 294 294 311 339 366 376 370 363 363 394 386 367 328 290 265 265 265 265 281 287 287 291 303 335 334 320 356 375 352 339 359 388 418 447 475 480 476 502 536 560 -9999 -9999 -9999 -9999 -9999 -9999 -9999 -9999
-9999 -9999 -9999 -9999 -9999 -9999 -9999 -9999 -9999 -9999 -9999 -9999 -9999 -9999 492 484 487 476 468 463 468 460 446 452 448 430 442 467 472 475 472 451 434 416 400 385 384 376 368 370 366 370 375 382 367 342 319 278 263 231 202 199 211 236 248 270 299 328 351 331 324 329 360 380 378 372 363 356 357 351 349 344 356 343 365 374 377 357 323 308 297 295 304 324 354 371 363 350 330 343 366 349 341 324 292 268 265 265 265 265 265 265 273 295 310 304 324 356 348 333 352 383 402 431 450 458 457 467 500 522 536 -9999 -9999 -9999 -9999 -9999 -9999 -9999 -9999
-9999 -9999 -9999 -9999 -9999 -9999 -9999 -9999 -9999 -9999 -9999 -9999 -9999 490 476 474 476 476 464 462 468 472 467 464 462 441 430 452 479 478 468 449 436 429 411 406 404 382 368 362 354 351 370 372 361 347 320 278 246 228 200 199 213 235 252 279 301 326 333 309 319 349 375 376 370 370 357 349 349 349 349 346 343 343 343 356 375 361 328 299 295 295 311 338 354 351 334 328 315 340 334 325 315 301 282 265 265 265 265 265 265 265 283 291 279 271 320 327 317 340 377 404 414 430 437 441 448 470 492 503 526 -9999 -9999 -9999 -9999 -9999 -9999 -9999 -9999
-9999 -9999 -9999 -9999 -9999 -9999 -9999 -9999 -9999 -9999 -9999 -9999 487 473 467 477 463 461 459 453 461 467 471 470 463 434 422 447 479 470 463 462 451 431 429 436 426 399 386 373 357 348 346 341 346 331 305 273 250 216 204 199 200 220 242 261 283 304 309 310 332 359 362 344 338 355 353 353 355 353 350 347 345 343 343 343 348 346 330 299 296 315 336 355 346 330 318 304 307 326 333 311 297 280 266 276 289 275 269 265 265 266 285 291 279 269 296 315 339 368 390 390 389 409 429 430 444 463 481 499 499 485 -9999 -9999 -9999 -9999 -9999 -9999 -9999
-9999 -9999 -9999 -9999 -9999 -9999 -9999 -9999 -9999 -9999 -9999 -9999 466 460 471 463 452 448 452 446 442 455 466 454 446 415 420 436 469 470 456 456 450 447 448 453 440 406 385 366 353 344 323 327 343 323 308 280 245 228 226 216 192 214 233 252 261 277 304 325 345 350 322 302 314 346 360 365 361 359 357 345 345 357 364 359 335 323 318 307 318 338 362 365 338 319 313 301 296 313 317 300 282 272 284 309 312 297 292 285 267 265 265 265 265 282 315 343 374 395 392 357 355 397 414 414 434 444 468 465 449 446 -9999 -9999 -9999 -9999 -9999 -9999 -9999
-9999 -9999 -9999 -9999 -9999 -9999 -9999 -9999 -9999 -9999 -9999 -9999 458 468 459 448 448 444 446 439 438 446 447 439 417 403 426 437 470 468 461 456 447 457 467 472 448 404 378 362 347 340 319 301 302 299 296 277 250 228 221 199 192 214 227 242 248 252 302 326 330 305 278 291 315 342 364 358 352 349 347 346 345 370 373 364 346 326 313 319 328 345 365 354 337 318 305 296 301 309 284 281 279 290 301 323 338 322 325 310 273 265 265 265 265 291 321 345 360 354 340 323 348 363 387 397 418 424 422 419 428 453 490 -9999 -9999 -9999 -9999 -9999 -9999
-9999 -9999 -9999 -9999 -9999 -9999 -9999 -9999 -9999 -9999 -9999 447 458 463 458 452 432 432 440 435 431 426 422 421 403 418 443 450 458 451 439 434 425 442 464 468 450 407 388 374 352 353 337 300 268 271 271 264 247 232 214 183 186 208 227 232 230 259 296 298 287 271 271 299 327 356 374 368 353 350 345 345 357 381 364 347 336 323 326 339 327 346 362 348 323 317 322 309 290 282 281 290 307 325 312 316 342 355 354 314 285 276 290 275 254 267 312 315 305 302 288 290 305 342 356 368 373 387 397 423 459 496 531 -9999 -9999 -9999 -9999 -9999 -9999
-9999 -9999 -9999 -9999 -9999 -9999 -9999 -9999 -9999 -9999 -9999 445 439 449 442 444 433 422 442 442 435 419 404 400 406 428 447 442 432 423 423 420 410 420 434 453 449 423 397 392 373 363 345 313 287 268 251 244 239 219 203 177 181 199 205 208 225 246 266 262 253 246 273 294 326 363 393 392 370 358 358 352 375 392 367 348 345 337 347 357 338 331 342 341 331 327 330 301 305 306 296 308 324 347 347 335 343 363 357 337 315 301 293 272 251 252 293 281 266 266 264 282 309 327 321 340 361 380 408 450 493 534 562 -9999 -9999 -9999 -9999 -9999 -9999
-9999 -9999 -9999 -9999 -9999 -9999 -9999 -9999 -9999 -9999 -9999 454 433 431 434 440 431 416 424 430 435 414 395 402 415 436 433 422 406 402 415 405 391 392 409 434 452 444 423 404 396 384 358 324 286 255 234 221 219 219 199 178 177 178 188 200 213 229 239 231 233 258 289 314 344 380 411 404 391 381 389 371 383 400 365 359 350 357 361 360 346 333 349 358 353 333 317 307 321 327 319 334 351 375 377 378 367 371 374 344 323 308 298 291 275 251 253 251 266 266 264 282 309 327 321 340 361 380 408 450 493 534 562 -9999 -9999 -9999 -9999 -9999 -9999
-9999 -9999 -9999 -9999 -9999 -9999 -9999 -9999 -9999 -9999 -9999 456 433 422 418 428 426 411 410 416 412 392 401 416 419 420 418 399 389 404 416 407 390 382 401 422 444 448 439 422 399 385 359 322 282 252 240 231 206 202 193 179 177 177 185 198 214 222 209 213 228 265 295 332 370 410 423 410 399 396 401 387 386 390 375 373 376 367 360 357 344 352 368 360 348 331 314 321 322 334 341 349 366 375 377 378 367 371 374 344 323 308 298 291 275 251 253 251 251 251 261 287 293 298 321 355 391 415 438 478 525 564 585 -9999 -9999 -9999 -9999 -9999 -9999
-9999 -9999 -9999 -9999 -9999 -9999 -9999 -9999 -9999 -9999 -9999 457 450 432 410 415 426 417 411 403 392 392 392 387 380 386 383 374 392 400 400 388 372 382 397 395 411 434 431 417 399 373 346 314 278 252 230 214 200 195 196 184 177 177 181 185 191 197 207 234 260 283 314 345 379 420 428 416 396 382 384 383 368 372 386 383 367 356 356 358 344 352 368 360 348 331 314 321 322 334 341 349 366 388 402 394 386 378 372 362 348 339 334 314 290 264 242 260 280 276 275 275 280 301 332 383 431 471 496 530 571 609 -9999 -9999 -9999 -9999 -9999 -9999 -9999
-9999 -9999 -9999 -9999 -9999 -9999 -9999 -9999 -9999 -9999 -9999 463 451 432 414 408 412 409 413 395 394 410 400 391 388 372 364 372 379 384 381 358 359 385 386 369 379 397 391 387 373 365 326 304 274 240 217 198 193 186 185 178 177 177 177 178 190 194 215 239 269 309 340 359 386 411 425 416 396 382 384 383 368 372 386 383 367 356 356 358 359 360 367 359 341 332 325 327 331 333 331 349 374 387 379 377 362 350 333 328 336 359 349 310 262 242 260 281 279 259 254 269 294 329 366 414 463 492 543 567 598 -9999 -9999 -9999 -9999 -9999 -9999 -9999 -9999
-9999 -9999 -9999 -9999 -9999 -9999 -9999 -9999 -9999 -9999 -9999 470 455 430 419 412 399 396 397 394 405 416 401 391 380 365 349 346 354 362 357 342 356 382 364 353 358 370 365 351 327 324 293 273 262 241 223 204 193 185 178 177 177 178 177 178 190 194 215 239 269 309 340 359 386 411 425 412 398 378 369 376 364 374 389 388 365 356 360 350 353 363 373 367 349 351 345 332 334 331 332 344 365 375 348 345 333 330 308 304 315 339 314 280 242 247 273 258 245 248 272 302 330 357 397 443 486 515 546 576 -9999 -9999 -9999 -9999 -9999 -9999 -9999 -9999 -9999
-9999 -9999 -9999 -9999 -9999 -9999 -9999 -9999 -9999 -9999 484 474 449 429 420 411 414 399 396 398 405 404 389 376 371 360 351 333 329 326 323 320 344 359 348 334 334 345 347 321 298 300 293 273 262 241 223 204 193 185 178 177 177 178 181 184 190 193 217 245 279 307 328 363 388 418 426 408 394 375 364 364 379 393 404 403 385 386 383 355 350 349 366 372 366 360 351 347 353 347 337 356 377 380 348 320 307 291 277 276 300 315 284 259 235 261 242 230 248 281 313 335 370 391 420 455 481 521 555 582 -9999 -9999 -9999 -9999 -9999 -9999 -9999 -9999 -9999
-9999 -9999 -9999 -9999 -9999 -9999 -9999 -9999 -9999 495 462 461 437 417 409 403 401 404 406 411 414 421 409 390 376 374 384 371 365 356 323 320 344 359 348 334 334 345 347 321 298 300 271 251 229 226 220 218 205 203 182 177 177 181 193 192 195 210 224 257 280 290 328 358 379 385 399 394 384 364 364 380 395 399 383 390 398 397 369 364 358 341 339 346 352 339 351 358 370 362 362 379 380 361 342 310 278 257 244 246 289 284 278 255 235 246 224 247 276 308 338 365 400 428 445 469 494 528 561 -9999 -9999 -9999 -9999 -9999 -9999 -9999 -9999 -9999 -9999
-9999 -9999 -9999 -9999 -9999 -9999 -9999 -9999 -9999 479 461 451 431 410 411 401 408 420 422 411 414 421 409 390 376 374 384 371 365 356 336 320 326 337 337 328 315 336 328 299 287 279 267 255 233 220 212 215 206 199 186 177 177 180 196 201 209 232 250 256 254 273 326 363 373 361 383 391 374 364 370 385 380 386 358 371 378 388 378 379 351 348 336 333 331 332 350 374 391 362 381 404 391 365 326 296 263 239 227 238 256 246 245 230 208 211 231 261 294 328 351 389 418 451 480 489 507 536 558 -9999 -9999 -9999 -9999 -9999 -9999 -9999 -9999 -9999 -9999
-9999 -9999 -9999 -9999 -9999 -9999 -9999 -9999 -9999 479 461 451 431 410 411 401 408 420 422 426 429 419 406 381 377 393 406 401 393 363 341 317 307 324 321 313 320 330 302 273 271 259 258 256 240 222 202 197 189 185 179 177 177 180 205 225 227 228 241 242 240 266 317 369 374 361 374 377 364 367 379 384 370 364 350 358 367 386 391 370 355 366 350 327 340 338 360 388 397 372 408 408 384 342 293 260 237 217 216 224 224 217 212 199 201 208 247 281 323 346 363 389 421 466 491 505 525 549 -9999 -9999 -9999 -9999 -9999 -9999 -9999 -9999 -9999 -9999 -9999
-9999 -9999 -9999 -9999 -9999 -9999 -9999 -9999 -9999 482 460 447 433 417 401 409 413 432 433 425 413 411 391 387 407 413 424 404 378 358 329 310 303 304 311 316 312 297 286 276 253 255 235 250 243 222 209 206 210 198 181 177 177 188 216 241 223 208 229 222 238 258 313 363 371 357 365 367 363 380 387 373 353 346 343 347 363 378 385 385 374 365 340 323 337 343 356 376 396 397 392 374 357 333 293 256 228 211 205 209 196 196 196 196 207 230 264 297 322 351 362 376 421 470 493 523 546 -9999 -9999 -9999 -9999 -9999 -9999 -9999 -9999 -9999 -9999 -9999 -9999
-9999 -9999 -9999 -9999 -9999 -9999 -9999 -9999 -9999 480 454 453 426 405 405 420 420 430 438 416 395 391 391 407 427 427 409 388 363 333 303 294 295 302 320 324 301 273 260 267 242 239 231 238 229 237 220 214 216 193 189 177 177 183 200 229 225 202 214 220 238 264 309 350 368 352 353 355 379 377 360 353 366 361 343 350 363 359 378 383 361 338 335 329 323 337 357 377 386 377 350 346 333 312 296 268 244 215 196 196 202 210 205 203 217 241 288 296 314 323 342 373 419 476 508 527 -9999 -9999 -9999 -9999 -9999 -9999 -9999 -9999 -9999 -9999 -9999 -9999 -9999
-9999 -9999 -9999 -9999 -9999 -9999 -9999 -9999 -9999 474 448 434 413 409 412 427 429 436 433 407 391 395 416 423 425 416 383 361 339 306 285 298 313 326 325 304 286 264 245 237 229 222 231 228 233 239 237 229 209 209 207 185 177 177 189 211 200 187 233 254 252 275 318 339 341 341 353 374 376 360 363 381 397 389 346 343 346 356 384 364 339 341 341 317 312 332 360 358 362 348 317 332 316 283 266 250 222 196 196 200 213 221 213 218 240 262 275 277 302 320 350 382 429 480 516 537 -9999 -9999 -9999 -9999 -9999 -9999 -9999 -9999 -9999 -9999 -9999 -9999 -9999
-9999 -9999 -9999 -9999 -9999 -9999 -9999 -9999 -9999 458 424 417 422 427 428 437 445 435 425 415 409 416 425 420 398 380 368 340 309 285 299 315 307 313 303 293 277 256 254 236 244 235 221 222 224 215 229 239 231 227 213 201 197 180 177 190 184 184 228 260 273 293 313 305 294 316 337 362 384 376 369 391 398 373 348 343 343 348 350 346 343 343 317 292 295 323 331 326 339 325 297 296 272 243 236 225 196 196 199 216 213 214 222 229 241 245 275 298 323 351 361 381 419 476 517 537 -9999 -9999 -9999 -9999 -9999 -9999 -9999 -9999 -9999 -9999 -9999 -9999 -9999
-9999 -9999 -9999 -9999 -9999 -9999 -9999 -9999 -9999 442 422 434 445 448 442 448 454 439 435 439 439 432 421 407 385 359 345 314 286 284 291 300 293 294 280 279 277 268 266 252 250 239 211 217 214 215 221 233 232 225 211 204 191 191 177 177 195 194 228 251 278 295 283 265 277 295 316 355 391 386 381 392 376 360 353 349 352 343 343 343 350 328 298 292 297 315 310 310 316 295 260 257 240 219 205 205 198 195 217 235 232 233 244 260 251 254 272 297 324 364 390 409 448 485 522 -9999 -9999 -9999 -9999 -9999 -9999 -9999 -9999 -9999 -9999 -9999 -9999 -9999 -9999
-9999 -9999 -9999 -9999 -9999 -9999 -9999 -9999 -9999 424 445 458 463 462 455 462 467 462 454 452 427 415 407 393 380 355 320 296 295 280 273 273 286 278 279 298 294 290 282 270 261 254 215 211 207 227 234 237 236 238 223 211 207 193 177 177 193 204 227 253 287 285 254 258 266 291 321 369 396 381 384 392 385 389 361 361 344 343 358 371 361 329 302 292 292 290 276 280 295 273 221 226 212 197 195 188 190 208 238 262 258 272 268 282 291 272 282 308 318 347 395 423 475 505 -9999 -9999 -9999 -9999 -9999 -9999 -9999 -9999 -9999 -9999 -9999 -9999 -9999 -9999 -9999
-9999 -9999 -9999 -9999 -9999 -9999 -9999 -9999 -9999 -9999 -9999 473 -9999 -9999 -9999 -9999 -9999 -9999 476 460 429 411 388 377 360 348 308 316 312 288 273 273 273 273 298 309 304 309 300 281 256 242 213 207 219 229 227 235 235 242 234 220 201 184 177 177 182 194 228 255 274 266 250 251 265 301 344 387 397 385 395 403 405 398 363 350 343 360 383 400 390 360 334 317 302 286 260 268 286 261 198 191 188 185 183 198 218 222 255 280 294 297 277 299 308 291 299 325 348 372 407 444 480 -9999 -9999 -9999 -9999 -9999 -9999 -9999 -9999 -9999 -9999 -9999 -9999 -9999 -9999 -9999 -9999
-9999 -9999 -9999 -9999 -9999 -9999 -9999 -9999 -9999 -9999 -9999 -9999 -9999 -9999 -9999 -9999 -9999 -9999 -9999 451 425 408 377 358 347 329 324 327 300 285 287 282 273 275 290 290 300 298 293 270 243 236 206 217 217 215 220 231 249 244 247 229 204 184 177 177 181 203 234 250 260 250 252 266 284 318 339 382 417 413 417 408 385 373 352 353 356 381 402 398 386 365 340 318 294 269 249 259 265 233 185 178 178 180 187 212 234 258 277 304 327 320 315 321 320 318 342 365 396 429 453 460 -9999 -9999 -9999 -9999 -9999 -9999 -9999 -9999 -9999 -9999 -9999 -9999 -9999 -9999 -9999 -9999 -9999
-9999 -9999 -9999 -9999 -9999 -9999 -9999 -9999 -9999 -9999 -9999 -9999 -9999 -9999 -9999 -9999 -9999 -9999 -9999 440 415 392 368 354 328 324 349 322 306 315 317 295 273 273 273 277 287 296 275 259 251 240 208 206 205 213 233 248 255 246 242 213 192 178 177 183 203 202 223 229 235 228 244 262 287 297 342 387 411 425 414 387 380 376 373 382 391 404 391 369 351 339 318 296 273 263 236 232 229 199 178 181 195 199 208 210 240 265 291 298 329 357 358 354 353 350 379 413 444 463 462 -9999 -9999 -9999 -9999 -9999 -9999 -9999 -9999 -9999 -9999 -9999 -9999 -9999 -9999 -9999 -9999 -9999 -9999
-9999 -9999 -9999 -9999 -9999 -9999 -9999 -9999 -9999 -9999 -9999 -9999 -9999 -9999 -9999 -9999 -9999 -9999 -9999 433 400 377 361 332 326 357 352 334 334 343 323 297 289 287 273 261 269 289 280 253 231 230 203 196 212 227 235 253 258 256 247 219 210 196 177 184 188 195 222 215 211 230 252 265 269 288 317 386 422 438 435 427 418 411 419 423 414 394 363 334 319 311 292 273 248 236 218 198 194 181 178 197 226 229 232 217 228 239 259 288 331 357 357 361 375 378 424 449 464 473 -9999 -9999 -9999 -9999 -9999 -9999 -9999 -9999 -9999 -9999 -9999 -9999 -9999 -9999 -9999 -9999 -9999 -9999 -9999
-9999 -9999 -9999 -9999 -9999 -9999 -9999 -9999 -9999 -9999 -9999 -9999 -9999 -9999 -9999 -9999 -9999 -9999 -9999 419 385 362 342 332 347 361 362 352 351 350 316 302 285 275 273 257 274 292 266 239 223 210 196 202 226 240 242 251 252 256 248 230 211 182 177 177 177 194 195 202 226 252 275 297 304 306 343 374 430 443 433 435 431 411 402 401 387 375 340 321 303 288 264 239 215 206 192 178 178 178 183 195 214 245 259 227 219 237 267 312 360 374 366 374 387 406 449 459 -9999 -9999 -9999 -9999 -9999 -9999 -9999 -9999 -9999 -9999 -9999 -9999 -9999 -9999 -9999 -9999 -9999 -9999 -9999 -9999 -9999
-9999 -9999 -9999 -9999 -9999 -9999 -9999 -9999 -9999 -9999 -9999 -9999 -9999 -9999 -9999 -9999 -9999 -9999 -9999 398 374 347 337 344 350 375 383 370 357 320 287 274 257 249 253 264 285 281 254 237 221 196 202 213 230 239 219 238 246 249 249 225 208 181 177 177 177 193 212 230 251 264 282 316 350 338 361 404 435 426 410 404 393 357 348 357 362 359 336 314 295 272 240 221 197 182 177 186 192 186 189 193 216 248 264 243 229 258 303 356 386 386 374 388 403 433 440 -9999 -9999 -9999 -9999 -9999 -9999 -9999 -9999 -9999 -9999 -9999 -9999 -9999 -9999 -9999 -9999 -9999 -9999 -9999 -9999 -9999 -9999
-9999 -9999 -9999 -9999 -9999 -9999 -9999 -9999 -9999 -9999 -9999 -9999 -9999 -9999 -9999 -9999 -9999 -9999 -9999 388 365 351 350 360 372 386 382 375 368 325 278 248 220 221 239 258 272 277 257 226 208 196 196 205 218 209 194 215 238 239 246 228 209 193 177 177 177 204 220 239 263 297 322 355 377 369 388 416 424 402 379 373 354 320 324 327 339 328 313 300 277 255 230 204 177 177 196 207 212 212 208 207 224 257 276 254 245 278 326 379 400 396 388 410 435 458 -9999 -9999 -9999 -9999 -9999 -9999 -9999 -9999 -9999 -9999 -9999 -9999 -9999 -9999 -9999 -9999 -9999 -9999 -9999 -9999 -9999 -9999 -9999
-9999 -9999 -9999 -9999 -9999 -9999 -9999 -9999 -9999 -9999 -9999 -9999 -9999 -9999 -9999 -9999 -9999 -9999 -9999 -9999 372 371 380 390 393 371 363 359 356 321 280 254 227 215 223 235 256 259 238 206 194 191 183 194 205 182 197 210 217 218 231 230 203 187 177 177 177 205 223 236 263 310 345 376 396 395 402 409 413 393 366 351 325 285 285 286 303 306 293 279 265 251 228 201 177 187 209 238 238 228 230 223 230 260 274 278 278 314 339 400 410 406 416 432 458 -9999 -9999 -9999 -9999 -9999 -9999 -9999 -9999 -9999 -9999 -9999 -9999 -9999 -9999 -9999 -9999 -9999 -9999 -9999 -9999 -9999 -9999 -9999 -9999
-9999 -9999 -9999 -9999 -9999 -9999 -9999 -9999 -9999 -9999 -9999 -9999 -9999 -9999 -9999 -9999 -9999 -9999 -9999 -9999 -9999 407 406 396 374 347 343 337 330 309 275 257 239 229 212 212 211 227 219 193 177 178 177 184 183 177 179 186 189 197 209 209 191 177 177 177 177 230 253 271 293 317 346 377 400 421 409 387 381 371 351 335 308 265 258 257 265 284 273 260 233 215 198 177 181 211 244 286 269 239 255 257 231 252 270 304 323 354 383 413 433 436 458 464 469 -9999 -9999 -9999 -9999 -9999 -9999 -9999 -9999 -9999 -9999 -9999 -9999 -9999 -9999 -9999 -9999 -9999 -9999 -9999 -9999 -9999 -9999 -9999 -9999
-9999 -9999 -9999 -9999 -9999 -9999 -9999 -9999 -9999 -9999 -9999 -9999 -9999 -9999 -9999 -9999 -9999 -9999 -9999 -9999 -9999 -9999 410 404 374 326 318 305 300 288 271 252 231 214 219 216 198 198 185 183 193 177 177 177 177 177 177 179 184 190 210 209 203 177 177 177 194 251 267 292 318 335 346 357 393 415 395 376 351 339 323 299 287 254 240 234 248 258 245 227 196 182 177 181 193 213 265 301 292 261 278 288 257 262 285 317 357 397 419 432 453 464 484 476 -9999 -9999 -9999 -9999 -9999 -9999 -9999 -9999 -9999 -9999 -9999 -9999 -9999 -9999 -9999 -9999 -9999 -9999 -9999 -9999 -9999 -9999 -9999 -9999 -9999
-9999 -9999 -9999 -9999 -9999 -9999 -9999 -9999 -9999 -9999 -9999 -9999 -9999 -9999 -9999 -9999 -9999 -9999 -9999 -9999 -9999 -9999 395 375 362 320 293 281 272 267 243 229 220 233 255 248 226 206 204 213 209 192 184 177 177 177 177 177 187 204 209 187 185 177 177 177 194 243 270 300 327 350 363 378 397 386 381 376 346 326 316 296 281 257 248 227 225 228 219 203 177 177 199 213 226 242 291 323 334 308 326 322 297 299 320 353 389 416 441 447 459 462 474 485 -9999 -9999 -9999 -9999 -9999 -9999 -9999 -9999 -9999 -9999 -9999 -9999 -9999 -9999 -9999 -9999 -9999 -9999 -9999 -9999 -9999 -9999 -9999 -9999 -9999
-9999 -9999 -9999 -9999 -9999 -9999 -9999 -9999 -9999 -9999 -9999 -9999 -9999 -9999 -9999 -9999 -9999 -9999 -9999 -9999 -9999 -9999 389 367 357 325 313 288 256 242 227 227 243 263 279 277 249 241 238 237 222 189 185 190 196 178 177 177 192 200 204 190 177 177 177 183 208 243 268 302 338 363 369 373 374 358 359 363 345 320 300 275 260 238 237 223 212 208 202 176 179 205 227 253 270 287 321 344 361 361 370 360 352 356 377 407 429 435 445 452 459 462 481 -9999 -9999 -9999 -9999 -9999 -9999 -9999 -9999 -9999 -9999 -9999 -9999 -9999 -9999 -9999 -9999 -9999 -9999 -9999 -9999 -9999 -9999 -9999 -9999 -9999 -9999
-9999 -9999 -9999 -9999 -9999 -9999 -9999 -9999 -9999 -9999 -9999 -9999 -9999 -9999 -9999 -9999 -9999 -9999 -9999 -9999 -9999 -9999 401 393 367 334 308 283 248 227 229 245 260 283 301 289 269 248 236 217 203 197 204 211 206 186 177 177 177 178 178 177 177 177 183 196 211 247 274 313 344 355 343 343 342 331 322 342 326 315 303 289 283 257 244 225 209 193 176 176 202 231 259 300 324 315 332 360 387 419 427 415 411 423 439 462 472 467 459 463 474 483 -9999 -9999 -9999 -9999 -9999 -9999 -9999 -9999 -9999 -9999 -9999 -9999 -9999 -9999 -9999 -9999 -9999 -9999 -9999 -9999 -9999 -9999 -9999 -9999 -9999 -9999 -9999
-9999 -9999 -9999 -9999 -9999 -9999 -9999 -9999 -9999 -9999 -9999 -9999 -9999 -9999 -9999 -9999 -9999 -9999 -9999 -9999 -9999 -9999 419 391 378 316 291 262 250 241 245 256 274 295 297 269 245 233 223 212 214 207 216 224 200 177 177 177 177 177 177 177 177 177 196 218 223 246 282 307 325 324 311 312 311 300 311 328 319 307 303 294 284 239 221 202 189 176 176 200 230 260 296 327 346 333 361 389 424 447 469 462 458 463 474 490 495 -9999 -9999 -9999 495 -9999 -9999 -9999 -9999 -9999 -9999 -9999 -9999 -9999 -9999 -9999 -9999 -9999 -9999 -9999 -9999 -9999 -9999 -9999 -9999 -9999 -9999 -9999 -9999 -9999 -9999 -9999 -9999
-9999 -9999 -9999 -9999 -9999 -9999 -9999 -9999 -9999 -9999 -9999 -9999 -9999 -9999 -9999 -9999 -9999 -9999 -9999 -9999 -9999 -9999 -9999 402 377 313 285 268 276 270 271 284 303 313 290 279 272 269 260 241 235 236 233 224 197 182 177 177 177 177 177 177 177 178 200 223 228 263 292 291 275 279 275 279 280 294 307 305 284 266 260 259 248 217 208 183 176 179 197 224 256 288 325 359 365 354 384 424 454 473 495 474 484 488 489 -9999 -9999 -9999 -9999 -9999 -9999 -9999 -9999 -9999 -9999 -9999 -9999 -9999 -9999 -9999 -9999 -9999 -9999 -9999 -9999 -9999 -9999 -9999 -9999 -9999 -9999 -9999 -9999 -9999 -9999 -9999 -9999 -9999 -9999
-9999 -9999 -9999 -9999 -9999 -9999 -9999 -9999 -9999 -9999 -9999 -9999 -9999 -9999 -9999 -9999 -9999 -9999 -9999 -9999 -9999 -9999 -9999 402 366 312 290 295 304 303 308 323 343 341 322 313 309 295 278 246 230 236 223 225 216 191 177 177 183 199 201 204 196 204 217 227 237 263 269 250 248 243 250 266 290 306 303 283 260 251 231 220 216 192 187 176 184 208 227 243 273 302 343 372 385 384 407 447 470 502 506 504 501 -9999 -9999 -9999 -9999 -9999 -9999 -9999 -9999 -9999 -9999 -9999 -9999 -9999 -9999 -9999 -9999 -9999 -9999 -9999 -9999 -9999 -9999 -9999 -9999 -9999 -9999 -9999 -9999 -9999 -9999 -9999 -9999 -9999 -9999 -9999 -9999
-9999 -9999 -9999 -9999 -9999 -9999 -9999 -9999 -9999 -9999 -9999 -9999 -9999 -9999 -9999 -9999 -9999 -9999 -9999 -9999 -9999 -9999 -9999 -9999 371 333 323 329 329 328 330 350 369 368 332 312 308 284 264 236 215 221 210 207 219 208 179 177 186 204 212 220 218 230 232 225 225 243 252 233 226 237 264 290 306 296 275 268 249 237 215 198 192 176 176 176 197 234 255 269 290 321 367 390 408 420 441 467 495 511 -9999 -9999 -9999 -9999 -9999 -9999 -9999 -9999 -9999 -9999 -9999 -9999 -9999 -9999 -9999 -9999 -9999 -9999 -9999 -9999 -9999 -9999 -9999 -9999 -9999 -9999 -9999 -9999 -9999 -9999 -9999 -9999 -9999 -9999 -9999 -9999 -9999 -9999 -9999
-9999 -9999 -9999 -9999 -9999 -9999 -9999 -9999 -9999 -9999 -9999 -9999 -9999 -9999 -9999 -9999 -9999 -9999 -9999 -9999 -9999 -9999 -9999 -9999 398 362 366 367 361 348 358 379 383 360 318 295 290 286 254 231 206 207 204 188 204 212 195 177 190 204 217 230 228 214 210 215 206 230 235 224 241 267 294 290 270 259 251 246 233 226 218 187 176 176 188 191 214 248 278 307 332 367 386 390 404 421 447 474 502 -9999 -9999 -9999 -9999 -9999 -9999 -9999 -9999 -9999 -9999 -9999 -9999 -9999 -9999 -9999 -9999 -9999 -9999 -9999 -9999 -9999 -9999 -9999 -9999 -9999 -9999 -9999 -9999 -9999 -9999 -9999 -9999 -9999 -9999 -9999 -9999 -9999 -9999 -9999 -9999
-9999 -9999 -9999 -9999 -9999 -9999 -9999 -9999 -9999 -9999 -9999 -9999 -9999 -9999 -9999 -9999 -9999 -9999 -9999 -9999 -9999 -9999 -9999 -9999 413 384 391 406 391 379 380 390 378 350 320 301 276 271 256 229 206 206 196 181 186 196 192 177 177 197 222 216 212 198 195 195 194 212 212 225 262 279 280 263 237 233 239 224 207 202 211 185 176 188 212 203 233 272 309 339 355 378 383 400 414 432 -9999 -9999 -9999 -9999 -9999 -9999 -9999 -9999 -9999 -9999 -9999 -9999 -9999 -9999 -9999 -9999 -9999 -9999 -9999 -9999 -9999 -9999 -9999 -9999 -9999 -9999 -9999 -9999 -9999 -9999 -9999 -9999 -9999 -9999 -9999 -9999 -9999 -9999 -9999 -9999 -9999 -9999 -9999
-9999 -9999 -9999 -9999 -9999 -9999 -9999 -9999 -9999 -9999 -9999 -9999 -9999 -9999 -9999 -9999 -9999 -9999 -9999 -9999 -9999 -9999 -9999 -9999 411 407 409 428 426 412 387 372 366 346 319 301 276 258 245 236 219 221 213 206 177 177 177 177 177 196 199 183 185 186 180 180 191 226 239 254 260 254 249 242 232 216 226 224 202 183 176 176 176 224 230 219 243 284 323 352 370 378 388 400 412 -9999 -9999 -9999 -9999 -9999 -9999 -9999 -9999 -9999 -9999 -9999 -9999 -9999 -9999 -9999 -9999 -9999 -9999 -9999 -9999 -9999 -9999 -9999 -9999 -9999 -9999 -9999 -9999 -9999 -9999 -9999 -9999 -9999 -9999 -9999 -9999 -9999 -9999 -9999 -9999 -9999 -9999 -9999 -9999
-9999 -9999 -9999 -9999 -9999 -9999 -9999 -9999 -9999 -9999 -9999 -9999 -9999 -9999 -9999 -9999 -9999 -9999 -9999 -9999 -9999 -9999 -9999 -9999 -9999 438 441 449 448 430 383 352 352 349 321 295 279 279 277 258 254 223 205 194 177 177 177 177 177 177 177 175 188 180 180 201 216 226 248 259 245 236 230 227 218 206 205 216 199 176 176 176 193 241 243 254 277 291 320 354 362 364 382 388 406 -9999 -9999 -9999 -9999 -9999 -9999 -9999 -9999 -9999 -9999 -9999 -9999 -9999 -9999 -9999 -9999 -9999 -9999 -9999 -9999 -9999 -9999 -9999 -9999 -9999 -9999 -9999 -9999 -9999 -9999 -9999 -9999 -9999 -9999 -9999 -9999 -9999 -9999 -9999 -9999 -9999 -9999 -9999 -9999
-9999 -9999 -9999 -9999 -9999 -9999 -9999 -9999 -9999 -9999 -9999 -9999 -9999 -9999 -9999 -9999 -9999 -9999 -9999 -9999 -9999 -9999 -9999 -9999 -9999 -9999 447 462 458 424 379 344 333 324 313 299 291 291 277 272 264 216 196 188 180 177 181 185 183 188 190 175 175 175 180 197 217 212 241 245 225 218 216 206 200 187 183 188 176 176 191 217 240 262 271 282 307 301 321 341 360 368 369 393 -9999 -9999 -9999 -9999 -9999 -9999 -9999 -9999 -9999 -9999 -9999 -9999 -9999 -9999 -9999 -9999 -9999 -9999 -9999 -9999 -9999 -9999 -9999 -9999 -9999 -9999 -9999 -9999 -9999 -9999 -9999 -9999 -9999 -9999 -9999 -9999 -9999 -9999 -9999 -9999 -9999 -9999 -9999 -9999 -9999
-9999 -9999 -9999 -9999 -9999 -9999 -9999 -9999 -9999 -9999 -9999 -9999 -9999 -9999 -9999 -9999 -9999 -9999 -9999 -9999 -9999 -9999 -9999 -9999 -9999 -9999 462 459 427 395 370 339 314 313 315 328 307 287 286 284 257 228 216 213 206 186 205 225 221 215 195 175 175 175 187 208 210 193 221 232 217 203 192 187 173 173 173 176 190 208 227 253 277 303 311 316 321 301 314 345 367 363 359 382 -9999 -9999 -9999 -9999 -9999 -9999 -9999 -9999 -9999 -9999 -9999 -9999 -9999 -9999 -9999 -9999 -9999 -9999 -9999 -9999 -9999 -9999 -9999 -9999 -9999 -9999 -9999 -9999 -9999 -9999 -9999 -9999 -9999 -9999 -9999 -9999 -9999 -9999 -9999 -9999 -9999 -9999 -9999 -9999 -9999
-9999 -9999 -9999 -9999 -9999 -9999 -9999 -9999 -9999 -9999 -9999 -9999 -9999 -9999 -9999 -9999 -9999 -9999 -9999 -9999 -9999 -9999 -9999 -9999 -9999 -9999 467 440 402 371 351 331 316 313 314 335 311 289 297 294 278 229 231 234 220 218 231 223 222 219 192 175 175 175 185 192 191 204 224 217 198 177 173 173 173 173 179 203 213 226 244 282 311 346 347 344 331 323 324 341 347 353 368 386 -9999 -9999 -9999 -9999 -9999 -9999 -9999 -9999 -9999 -9999 -9999 -9999 -9999 -9999 -9999 -9999 -9999 -9999 -9999 -9999 -9999 -9999 -9999 -9999 -9999 -9999 -9999 -9999 -9999 -9999 -9999 -9999 -9999 -9999 -9999 -9999 -9999 -9999 -9999 -9999 -9999 -9999 -9999 -9999 -9999
-9999 -9999 -9999 -9999 -9999 -9999 -9999 -9999 -9999 -9999 -9999 -9999 -9999 -9999 -9999 -9999 -9999 -9999 -9999 -9999 -9999 -9999 -9999 -9999 -9999 -9999 455 427 399 373 345 335 330 317 321 321 310 305 314 314 308 258 255 255 244 243 231 216 213 204 183 175 175 186 173 173 173 206 209 203 187 173 173 173 173 183 209 228 225 236 261 304 333 372 372 368 352 336 334 338 348 377 388 -9999 -9999 -9999 -9999 -9999 -9999 -9999 -9999 -9999 -9999 -9999 -9999 -9999 -9999 -9999 -9999 -9999 -9999 -9999 -9999 -9999 -9999 -9999 -9999 -9999 -9999 -9999 -9999 -9999 -9999 -9999 -9999 -9999 -9999 -9999 -9999 -9999 -9999 -9999 -9999 -9999 -9999 -9999 -9999 -9999 -9999
-9999 -9999 -9999 -9999 -9999 -9999 -9999 -9999 -9999 -9999 -9999 -9999 -9999 -9999 -9999 -9999 -9999 -9999 -9999 -9999 -9999 -9999 -9999 -9999 -9999 -9999 457 428 395 382 374 361 358 342 331 319 317 325 341 345 334 297 280 276 268 269 245 227 218 197 177 183 188 200 173 173 173 173 175 176 173 173 173 173 189 219 240 242 252 264 286 330 366 389 381 370 360 344 334 334 356 371 -9999 -9999 -9999 -9999 -9999 -9999 -9999 -9999 -9999 -9999 -9999 -9999 -9999 -9999 -9999 -9999 -9999 -9999 -9999 -9999 -9999 -9999 -9999 -9999 -9999 -9999 -9999 -9999 -9999 -9999 -9999 -9999 -9999 -9999 -9999 -9999 -9999 -9999 -9999 -9999 -9999 -9999 -9999 -9999 -9999 -9999 -9999
-9999 -9999 -9999 -9999 -9999 -9999 -9999 -9999 -9999 -9999 -9999 -9999 -9999 -9999 -9999 -9999 -9999 -9999 -9999 -9999 -9999 -9999 -9999 -9999 -9999 -9999 491 460 437 427 411 388 389 361 347 343 333 354 380 386 351 304 288 284 280 286 260 242 228 212 193 196 202 204 179 173 173 173 173 173 173 173 177 200 219 246 266 274 285 303 335 373 400 387 372 360 348 335 334 335 362 -9999 -9999 -9999 -9999 -9999 -9999 -9999 -9999 -9999 -9999 -9999 -9999 -9999 -9999 -9999 -9999 -9999 -9999 -9999 -9999 -9999 -9999 -9999 -9999 -9999 -9999 -9999 -9999 -9999 -9999 -9999 -9999 -9999 -9999 -9999 -9999 -9999 -9999 -9999 -9999 -9999 -9999 -9999 -9999 -9999 -9999 -9999 -9999
-9999 -9999 -9999 -9999 -9999 -9999 -9999 -9999 -9999 -9999 -9999 -9999 -9999 -9999 -9999 -9999 -9999 -9999 -9999 -9999 -9999 -9999 -9999 -9999 -9999 -9999 512 508 475 461 443 427 405 390 380 365 363 391 417 400 366 303 291 295 303 290 262 239 216 210 198 197 201 195 173 173 173 173 173 173 184 190 197 222 247 268 279 291 311 333 367 400 422 390 384 360 359 340 334 334 353 -9999 -9999 -9999 -9999 -9999 -9999 -9999 -9999 -9999 -9999 -9999 -9999 -9999 -9999 -9999 -9999 -9999 -9999 -9999 -9999 -9999 -9999 -9999 -9999 -9999 -9999 -9999 -9999 -9999 -9999 -9999 -9999 -9999 -9999 -9999 -9999 -9999 -9999 -9999 -9999 -9999 -9999 -9999 -9999 -9999 -9999 -9999 -9999
-9999 -9999 -9999 -9999 -9999 -9999 -9999 -9999 -9999 -9999 -9999 -9999 -9999 -9999 -9999 -9999 -9999 -9999 -9999 -9999 -9999 -9999 -9999 -9999 -9999 -9999 -9999 547 532 506 474 452 415 419 404 382 387 399 399 393 376 324 319 316 300 293 281 256 230 224 212 209 203 198 192 173 173 173 173 173 184 192 188 217 265 292 301 306 326 352 383 397 417 404 381 369 355 350 350 347 361 -9999 -9999 -9999 -9999 -9999 -9999 -9999 -9999 -9999 -9999 -9999 -9999 -9999 -9999 -9999 -9999 -9999 -9999 -9999 -9999 -9999 -9999 -9999 -9999 -9999 -9999 -9999 -9999 -9999 -9999 -9999 -9999 -9999 -9999 -9999 -9999 -9999 -9999 -9999 -9999 -9999 -9999 -9999 -9999 -9999 -9999 -9999 -9999
-9999 -9999 -9999 -9999 -9999 -9999 -9999 -9999 -9999 -9999 -9999 -9999 -9999 -9999 -9999 -9999 -9999 -9999 -9999 -9999 -9999 -9999 -9999 -9999 -9999 -9999 -9999 -9999 -9999 -9999 504 479 461 455 430 388 369 360 358 362 354 319 305 296 279 272 265 254 226 216 210 194 193 186 173 173 175 182 173 173 184 185 184 203 248 291 335 329 333 357 375 401 423 403 376 388 377 362 367 354 367 -9999 -9999 -9999 -9999 -9999 -9999 -9999 -9999 -9999 -9999 -9999 -9999 -9999 -9999 -9999 -9999 -9999 -9999 -9999 -9999 -9999 -9999 -9999 -9999 -9999 -9999 -9999 -9999 -9999 -9999 -9999 -9999 -9999 -9999 -9999 -9999 -9999 -9999 -9999 -9999 -9999 -9999 -9999 -9999 -9999 -9999 -9999 -9999
-9999 -9999 -9999 -9999 -9999 -9999 -9999 -9999 -9999 -9999 -9999 -9999 -9999 -9999 -9999 -9999 -9999 -9999 -9999 -9999 -9999 -9999 -9999 -9999 -9999 -9999 -9999 -9999 -9999 -9999 -9999 488 477 462 438 396 367 339 330 336 331 306 291 287 272 257 248 230 216 209 196 180 174 173 173 188 205 173 173 173 178 172 172 191 228 282 337 346 357 356 368 396 425 405 392 400 384 381 369 355 -9999 -9999 -9999 -9999 -9999 -9999 -9999 -9999 -9999 -9999 -9999 -9999 -9999 -9999 -9999 -9999 -9999 -9999 -9999 -9999 -9999 -9999 -9999 -9999 -9999 -9999 -9999 -9999 -9999 -9999 -9999 -9999 -9999 -9999 -9999 -9999 -9999 -9999 -9999 -9999 -9999 -9999 -9999 -9999 -9999 -9999 -9999 -9999 -9999
-9999 -9999 -9999 -9999 -9999 -9999 -9999 -9999 -9999 -9999 -9999 -9999 -9999 -9999 -9999 -9999 -9999 -9999 -9999 -9999 -9999 -9999 -9999 -9999 -9999 -9999 -9999 -9999 -9999 -9999 -9999 484 462 443 436 408 379 335 313 303 297 301 286 274 268 253 245 222 209 206 192 173 173 182 197 211 218 192 182 182 173 172 172 175 213 266 338 346 355 349 348 371 380 410 407 397 402 395 381 368 -9999 -9999 -9999 -9999 -9999 -9999 -9999 -9999 -9999 -9999 -9999 -9999 -9999 -9999 -9999 -9999 -9999 -9999 -9999 -9999 -9999 -9999 -9999 -9999 -9999 -9999 -9999 -9999 -9999 -9999 -9999 -9999 -9999 -9999 -9999 -9999 -9999 -9999 -9999 -9999 -9999 -9999 -9999 -9999 -9999 -9999 -9999 -9999 -9999
-9999 -9999 -9999 -9999 -9999 -9999 -9999 -9999 -9999 -9999 -9999 -9999 -9999 -9999 -9999 -9999 -9999 -9999 -9999 -9999 -9999 -9999 -9999 -9999 -9999 -9999 -9999 -9999 -9999 -9999 -9999 478 459 432 418 396 372 342 312 287 279 296 271 248 238 231 228 223 196 185 180 173 174 194 214 228 244 230 214 204 201 193 172 172 184 232 312 339 342 334 348 371 380 410 407 397 402 -9999 -9999 -9999 -9999 -9999 -9999 -9999 -9999 -9999 -9999 -9999 -9999 -9999 -9999 -9999 -9999 -9999 -9999 -9999 -9999 -9999 -9999 -9999 -9999 -9999 -9999 -9999 -9999 -9999 -9999 -9999 -9999 -9999 -9999 -9999 -9999 -9999 -9999 -9999 -9999 -9999 -9999 -9999 -9999 -9999 -9999 -9999 -9999 -9999 -9999 -9999 -9999
-9999 -9999 -9999 -9999 -9999 -9999 -9999 -9999 -9999 -9999 -9999 -9999 -9999 -9999 -9999 -9999 -9999 -9999 -9999 -9999 -9999 -9999 -9999 -9999 -9999 -9999 -9999 -9999 -9999 -9999 466 464 446 426 396 386 372 345 310 283 277 283 254 227 208 200 199 201 185 189 195 186 186 202 222 237 259 257 214 204 201 193 172 172 184 232 312 339 342 334 351 368 362 386 379 375 382 -9999 -9999 -9999 -9999 -9999 -9999 -9999 -9999 -9999 -9999 -9999 -9999 -9999 -9999 -9999 -9999 -9999 -9999 -9999 -9999 -9999 -9999 -9999 -9999 -9999 -9999 -9999 -9999 -9999 -9999 -9999 -9999 -9999 -9999 -9999 -9999 -9999 -9999 -9999 -9999 -9999 -9999 -9999 -9999 -9999 -9999 -9999 -9999 -9999 -9999 -9999 -9999
-9999 -9999 -9999 -9999 -9999 -9999 -9999 -9999 -9999 -9999 -9999 -9999 -9999 -9999 -9999 -9999 -9999 -9999 -9999 -9999 -9999 -9999 -9999 -9999 -9999 -9999 -9999 -9999 -9999 -9999 441 456 447 416 371 354 336 323 296 272 267 251 233 215 201 200 199 201 185 189 195 186 186 202 222 237 259 257 243 234 217 189 172 172 173 216 286 328 334 327 345 363 353 357 349 347 356 355 -9999 -9999 -9999 -9999 -9999 -9999 -9999 -9999 -9999 -9999 -9999 -9999 -9999 -9999 -9999 -9999 -9999 -9999 -9999 -9999 -9999 -9999 -9999 -9999 -9999 -9999 -9999 -9999 -9999 -9999 -9999 -9999 -9999 -9999 -9999 -9999 -9999 -9999 -9999 -9999 -9999 -9999 -9999 -9999 -9999 -9999 -9999 -9999 -9999 -9999 -9999
-9999 -9999 -9999 -9999 -9999 -9999 -9999 -9999 -9999 -9999 -9999 -9999 -9999 -9999 -9999 -9999 -9999 -9999 -9999 -9999 -9999 -9999 -9999 -9999 -9999 -9999 -9999 -9999 -9999 445 425 439 435 399 371 354 336 323 296 272 267 251 233 215 201 195 185 185 199 218 205 197 196 209 236 249 273 271 251 232 213 181 172 172 185 201 263 296 318 331 347 345 353 334 338 338 339 327 -9999 -9999 -9999 -9999 -9999 -9999 -9999 -9999 -9999 -9999 -9999 -9999 -9999 -9999 -9999 -9999 -9999 -9999 -9999 -9999 -9999 -9999 -9999 -9999 -9999 -9999 -9999 -9999 -9999 -9999 -9999 -9999 -9999 -9999 -9999 -9999 -9999 -9999 -9999 -9999 -9999 -9999 -9999 -9999 -9999 -9999 -9999 -9999 -9999 -9999 -9999
-9999 -9999 -9999 -9999 -9999 -9999 -9999 -9999 -9999 -9999 -9999 -9999 -9999 -9999 -9999 -9999 -9999 -9999 -9999 -9999 -9999 -9999 -9999 -9999 -9999 -9999 -9999 -9999 -9999 445 425 439 435 399 361 326 306 300 278 265 250 247 225 215 209 209 196 210 225 216 210 220 217 233 260 277 283 253 226 210 194 172 172 172 194 207 249 286 301 320 339 331 330 325 326 326 319 305 -9999 -9999 -9999 -9999 -9999 -9999 -9999 -9999 -9999 -9999 -9999 -9999 -9999 -9999 -9999 -9999 -9999 -9999 -9999 -9999 -9999 -9999 -9999 -9999 -9999 -9999 -9999 -9999 -9999 -9999 -9999 -9999 -9999 -9999 -9999 -9999 -9999 -9999 -9999 -9999 -9999 -9999 -9999 -9999 -9999 -9999 -9999 -9999 -9999 -9999 -9999
-9999 -9999 -9999 -9999 -9999 -9999 -9999 -9999 -9999 -9999 -9999 -9999 -9999 -9999 -9999 -9999 -9999 -9999 -9999 -9999 -9999 -9999 -9999 -9999 -9999 -9999 -9999 -9999 -9999 444 422 426 410 373 354 327 294 290 270 255 278 274 255 241 225 211 220 232 229 226 225 233 230 250 278 291 282 257 225 198 180 172 172 172 178 205 243 264 282 304 327 310 303 292 295 291 297 295 302 -9999 -9999 -9999 -9999 -9999 -9999 -9999 -9999 -9999 -9999 -9999 -9999 -9999 -9999 -9999 -9999 -9999 -9999 -9999 -9999 -9999 -9999 -9999 -9999 -9999 -9999 -9999 -9999 -9999 -9999 -9999 -9999 -9999 -9999 -9999 -9999 -9999 -9999 -9999 -9999 -9999 -9999 -9999 -9999 -9999 -9999 -9999 -9999 -9999 -9999
-9999 -9999 -9999 -9999 -9999 -9999 -9999 -9999 -9999 -9999 -9999 -9999 -9999 -9999 -9999 -9999 -9999 -9999 -9999 -9999 -9999 -9999 -9999 -9999 -9999 -9999 -9999 -9999 -9999 -9999 -9999 411 394 355 338 323 296 287 289 282 290 271 252 234 228 233 256 261 253 255 249 252 233 255 279 264 278 256 236 213 185 172 172 172 175 207 239 248 269 296 300 289 268 272 278 289 297 284 279 282 -9999 -9999 -9999 -9999 -9999 -9999 -9999 -9999 -9999 -9999 -9999 -9999 -9999 -9999 -9999 -9999 -9999 -9999 -9999 -9999 -9999 -9999 -9999 -9999 -9999 -9999 -9999 -9999 -9999 -9999 -9999 -9999 -9999 -9999 -9999 -9999 -9999 -9999 -9999 -9999 -9999 -9999 -9999 -9999 -9999 -9999 -9999 -9999 -9999
-9999 -9999 -9999 -9999 -9999 -9999 -9999 -9999 -9999 -9999 -9999 -9999 -9999 -9999 -9999 -9999 -9999 -9999 -9999 -9999 -9999 -9999 -9999 -9999 -9999 -9999 -9999 -9999 -9999 -9999 -9999 -9999 370 344 330 328 314 306 309 293 268 260 248 246 253 255 270 286 273 264 259 260 254 263 266 245 263 253 231 209 175 172 172 172 176 214 235 236 258 253 263 266 239 247 262 272 275 258 259 274 -9999 -9999 -9999 -9999 -9999 -9999 -9999 -9999 -9999 -9999 -9999 -9999 -9999 -9999 -9999 -9999 -9999 -9999 -9999 -9999 -9999 -9999 -9999 -9999 -9999 -9999 -9999 -9999 -9999 -9999 -9999 -9999 -9999 -9999 -9999 -9999 -9999 -9999 -9999 -9999 -9999 -9999 -9999 -9999 -9999 -9999 -9999 -9999 -9999
-9999 -9999 -9999 -9999 -9999 -9999 -9999 -9999 -9999 -9999 -9999 -9999 -9999 -9999 -9999 -9999 -9999 -9999 -9999 -9999 -9999 -9999 -9999 -9999 -9999 -9999 -9999 -9999 -9999 -9999 -9999 -9999 359 -9999 -9999 338 344 323 317 282 255 255 266 270 277 279 289 299 281 275 272 277 264 259 260 249 236 226 212 205 188 172 172 172 189 215 214 232 237 228 238 240 203 221 232 258 252 244 264 -9999 -9999 -9999 -9999 -9999 -9999 -9999 -9999 -9999 -9999 -9999 -9999 -9999 -9999 -9999 -9999 -9999 -9999 -9999 -9999 -9999 -9999 -9999 -9999 -9999 -9999 -9999 -9999 -9999 -9999 -9999 -9999 -9999 -9999 -9999 -9999 -9999 -9999 -9999 -9999 -9999 -9999 -9999 -9999 -9999 -9999 -9999 -9999 -9999 -9999
-9999 -9999 -9999 -9999 -9999 -9999 -9999 -9999 -9999 -9999 -9999 -9999 -9999 -9999 -9999 -9999 -9999 -9999 -9999 -9999 -9999 -9999 -9999 -9999 -9999 -9999 -9999 -9999 -9999 -9999 -9999 -9999 -9999 -9999 -9999 -9999 -9999 -9999 308 286 277 281 301 305 310 304 307 299 277 268 270 274 262 241 232 231 224 214 207 185 176 172 172 172 183 181 199 213 201 206 210 202 192 208 233 250 241 242 267 -9999 -9999 -9999 -9999 -9999 -9999 -9999 -9999 -9999 -9999 -9999 -9999 -9999 -9999 -9999 -9999 -9999 -9999 -9999 -9999 -9999 -9999 -9999 -9999 -9999 -9999 -9999 -9999 -9999 -9999 -9999 -9999 -9999 -9999 -9999 -9999 -9999 -9999 -9999 -9999 -9999 -9999 -9999 -9999 -9999 -9999 -9999 -9999 -9999 -9999
-9999 -9999 -9999 -9999 -9999 -9999 -9999 -9999 -9999 -9999 -9999 -9999 -9999 -9999 -9999 -9999 -9999 -9999 -9999 -9999 -9999 -9999 -9999 -9999 -9999 -9999 -9999 -9999 -9999 -9999 -9999 -9999 -9999 -9999 -9999 -9999 -9999 -9999 312 310 297 303 325 336 338 324 299 274 258 245 257 259 254 230 206 208 216 199 189 172 172 172 172 172 172 174 183 186 176 180 180 184 202 209 213 226 229 251 274 -9999 -9999 -9999 -9999 -9999 -9999 -9999 -9999 -9999 -9999 -9999 -9999 -9999 -9999 -9999 -9999 -9999 -9999 -9999 -9999 -9999 -9999 -9999 -9999 -9999 -9999 -9999 -9999 -9999 -9999 -9999 -9999 -9999 -9999 -9999 -9999 -9999 -9999 -9999 -9999 -9999 -9999 -9999 -9999 -9999 -9999 -9999 -9999 -9999 -9999
-9999 -9999 -9999 -9999 -9999 -9999 -9999 -9999 -9999 -9999 -9999 -9999 -9999 -9999 -9999 -9999 -9999 -9999 -9999 -9999 -9999 -9999 -9999 -9999 -9999 -9999 -9999 -9999 -9999 -9999 -9999 -9999 -9999 -9999 -9999 -9999 -9999 -9999 -9999 -9999 -9999 325 346 354 349 328 304 266 245 227 239 247 226 202 187 182 185 172 172 172 172 176 187 186 187 181 172 176 173 184 197 198 190 190 205 226 246 265 279 -9999 -9999 -9999 265 -9999 -9999 -9999 -9999 -9999 -9999 -9999 -9999 -9999 -9999 -9999 -9999 -9999 -9999 -9999 -9999 -9999 -9999 -9999 -9999 -9999 -9999 -9999 -9999 -9999 -9999 -9999 -9999 -9999 -9999 -9999 -9999 -9999 -9999 -9999 -9999 -9999 -9999 -9999 -9999 -9999 -9999 -9999 -9999 -9999 -9999
-9999 -9999 -9999 -9999 -9999 -9999 -9999 -9999 -9999 -9999 -9999 -9999 -9999 -9999 -9999 -9999 -9999 -9999 -9999 -9999 -9999 -9999 -9999 -9999 -9999 -9999 -9999 -9999 -9999 -9999 -9999 -9999 -9999 -9999 -9999 -9999 -9999 -9999 -9999 -9999 -9999 -9999 345 337 328 316 294 266 242 222 225 223 196 190 175 172 172 172 172 172 173 182 193 195 184 181 172 172 172 185 197 181 180 192 225 241 252 266 264 259 247 250 241 -9999 -9999 -9999 -9999 -9999 -9999 -9999 -9999 -9999 -9999 -9999 -9999 -9999 -9999 -9999 -9999 -9999 -9999 -9999 -9999 -9999 -9999 -9999 -9999 -9999 -9999 -9999 -9999 -9999 -9999 -9999 -9999 -9999 -9999 -9999 -9999 -9999 -9999 -9999 -9999 -9999 -9999 -9999 -9999 -9999 -9999
-9999 -9999 -9999 -9999 -9999 -9999 -9999 -9999 -9999 -9999 -9999 -9999 -9999 -9999 -9999 -9999 -9999 -9999 -9999 -9999 -9999 -9999 -9999 -9999 -9999 -9999 -9999 -9999 -9999 -9999 -9999 -9999 -9999 -9999 -9999 -9999 -9999 -9999 -9999 -9999 -9999 341 326 314 306 300 269 237 215 201 200 200 206 201 197 187 172 172 172 172 172 188 195 186 172 172 172 174 181 201 207 178 178 192 215 244 259 240 235 237 233 240 228 -9999 -9999 -9999 -9999 -9999 -9999 -9999 -9999 -9999 -9999 -9999 -9999 -9999 -9999 -9999 -9999 -9999 -9999 -9999 -9999 -9999 -9999 -9999 -9999 -9999 -9999 -9999 -9999 -9999 -9999 -9999 -9999 -9999 -9999 -9999 -9999 -9999 -9999 -9999 -9999 -9999 -9999 -9999 -9999 -9999 -9999
-9999 -9999 -9999 -9999 -9999 -9999 -9999 -9999 -9999 -9999 -9999 -9999 -9999 -9999 -9999 -9999 -9999 -9999 -9999 -9999 -9999 -9999 -9999 -9999 -9999 -9999 -9999 -9999 -9999 -9999 -9999 -9999 -9999 -9999 -9999 -9999 -9999 -9999 -9999 -9999 -9999 333 314 296 275 271 257 234 216 218 210 228 230 221 209 181 172 172 177 189 209 206 199 192 172 172 172 182 201 197 198 180 178 196 227 253 244 224 230 229 219 232 217 224 -9999 -9999 -9999 -9999 -9999 -9999 -9999 -9999 -9999 -9999 -9999 -9999 -9999 -9999 -9999 -9999 -9999 -9999 -9999 -9999 -9999 -9999 -9999 -9999 -9999 -9999 -9999 -9999 -9999 -9999 -9999 -9999 -9999 -9999 -9999 -9999 -9999 -9999 -9999 -9999 -9999 -9999 -9999 -9999 -9999
-9999 -9999 -9999 -9999 -9999 -9999 -9999 -9999 -9999 -9999 -9999 -9999 -9999 -9999 -9999 -9999 -9999 -9999 -9999 -9999 -9999 -9999 -9999 -9999 -9999 -9999 -9999 -9999 -9999 -9999 -9999 -9999 -9999 -9999 -9999 -9999 -9999 -9999 -9999 -9999 -9999 309 301 297 294 299 279 247 241 250 243 243 244 230 198 172 173 187 193 209 212 181 173 178 172 172 172 190 203 192 174 172 178 195 235 253 238 218 216 210 217 228 209 217 227 -9999 -9999 -9999 -9999 -9999 -9999 -9999 -9999 -9999 -9999 -9999 -9999 -9999 -9999 -9999 -9999 -9999 -9999 -9999 -9999 -9999 -9999 -9999 -9999 -9999 -9999 -9999 -9999 -9999 -9999 -9999 -9999 -9999 -9999 -9999 -9999 -9999 -9999 -9999 -9999 -9999 -9999 -9999 -9999
-9999 -9999 -9999 -9999 -9999 -9999 -9999 -9999 -9999 -9999 -9999 -9999 -9999 -9999 -9999 -9999 -9999 -9999 -9999 -9999 -9999 -9999 -9999 -9999 -9999 -9999 -9999 -9999 -9999 -9999 -9999 -9999 -9999 -9999 -9999 -9999 -9999 -9999 -9999 -9999 -9999 328 323 318 325 316 301 267 269 281 271 260 263 241 210 172 172 172 181 206 199 180 172 172 172 172 172 175 178 180 172 172 186 210 239 250 250 242 237 214 202 209 198 202 221 -9999 -9999 -9999 -9999 -9999 -9999 -9999 -9999 -9999 -9999 -9999 -9999 -9999 -9999 -9999 -9999 -9999 -9999 -9999 -9999 -9999 -9999 -9999 -9999 -9999 -9999 -9999 -9999 -9999 -9999 -9999 -9999 -9999 -9999 -9999 -9999 -9999 -9999 -9999 -9999 -9999 -9999 -9999 -9999
-9999 -9999 -9999 -9999 -9999 -9999 -9999 -9999 -9999 -9999 -9999 -9999 -9999 -9999 -9999 -9999 -9999 -9999 -9999 -9999 -9999 -9999 -9999 -9999 -9999 -9999 -9999 -9999 -9999 -9999 -9999 -9999 -9999 -9999 -9999 -9999 -9999 -9999 -9999 -9999 -9999 329 326 310 314 305 304 277 280 288 282 267 280 256 214 197 190 172 177 191 175 186 172 172 172 172 172 172 172 172 172 172 204 226 235 242 246 228 222 200 187 193 193 209 217 -9999 -9999 -9999 -9999 -9999 -9999 -9999 -9999 -9999 -9999 -9999 -9999 -9999 -9999 -9999 -9999 -9999 -9999 -9999 -9999 -9999 -9999 -9999 -9999 -9999 -9999 -9999 -9999 -9999 -9999 -9999 -9999 -9999 -9999 -9999 -9999 -9999 -9999 -9999 -9999 -9999 -9999 -9999 -9999
-9999 -9999 -9999 -9999 -9999 -9999 -9999 -9999 -9999 -9999 -9999 -9999 -9999 -9999 -9999 -9999 -9999 -9999 -9999 -9999 -9999 -9999 -9999 -9999 -9999 -9999 -9999 -9999 -9999 -9999 -9999 -9999 -9999 -9999 -9999 -9999 -9999 -9999 -9999 -9999 323 305 294 294 297 293 284 273 267 269 274 264 274 259 236 220 204 172 176 188 172 172 181 172 172 172 173 186 190 172 172 172 184 201 218 233 231 224 213 192 187 190 209 226 226 -9999 -9999 -9999 -9999 -9999 -9999 -9999 -9999 -9999 -9999 -9999 -9999 -9999 -9999 -9999 -9999 -9999 -9999 -9999 -9999 -9999 -9999 -9999 -9999 -9999 -9999 -9999 -9999 -9999 -9999 -9999 -9999 -9999 -9999 -9999 -9999 -9999 -9999 -9999 -9999 -9999 -9999 -9999 -9999
-9999 -9999 -9999 -9999 -9999 -9999 -9999 -9999 -9999 -9999 -9999 -9999 -9999 -9999 -9999 -9999 -9999 -9999 -9999 -9999 -9999 -9999 -9999 -9999 -9999 -9999 -9999 -9999 -9999 -9999 -9999 -9999 -9999 -9999 -9999 -9999 -9999 -9999 -9999 381 328 297 304 299 284 284 277 254 245 259 270 260 245 236 232 227 190 172 172 172 172 172 172 172 172 180 202 212 199 181 172 172 186 195 198 213 209 197 188 187 194 210 215 225 231 -9999 -9999 -9999 -9999 -9999 -9999 -9999 -9999 -9999 -9999 -9999 -9999 -9999 -9999 -9999 -9999 -9999 -9999 -9999 -9999 -9999 -9999 -9999 -9999 -9999 -9999 -9999 -9999 -9999 -9999 -9999 -9999 -9999 -9999 -9999 -9999 -9999 -9999 -9999 -9999 -9999 -9999 -9999 -9999
-9999 -9999 -9999 -9999 -9999 -9999 -9999 -9999 -9999 -9999 -9999 -9999 -9999 -9999 -9999 -9999 -9999 -9999 -9999 -9999 -9999 -9999 -9999 -9999 -9999 -9999 -9999 -9999 -9999 -9999 -9999 -9999 -9999 -9999 -9999 -9999 -9999 -9999 -9999 376 321 298 302 291 281 277 271 257 242 241 265 260 231 210 216 220 185 172 172 172 172 172 172 172 172 180 203 208 184 172 172 172 203 202 180 180 187 187 187 196 218 216 210 210 -9999 -9999 -9999 -9999 -9999 -9999 -9999 -9999 -9999 -9999 -9999 -9999 -9999 -9999 -9999 -9999 -9999 -9999 -9999 -9999 -9999 -9999 -9999 -9999 -9999 -9999 -9999 -9999 -9999 -9999 -9999 -9999 -9999 -9999 -9999 -9999 -9999 -9999 -9999 -9999 -9999 -9999 -9999 -9999 -9999
-9999 -9999 -9999 -9999 -9999 -9999 -9999 -9999 -9999 -9999 -9999 -9999 -9999 -9999 -9999 -9999 -9999 -9999 -9999 -9999 -9999 -9999 -9999 -9999 -9999 -9999 -9999 -9999 -9999 -9999 -9999 -9999 -9999 -9999 -9999 -9999 -9999 -9999 -9999 360 319 299 305 306 305 289 259 241 233 227 241 249 247 214 197 201 181 185 172 172 172 175 183 190 186 184 189 178 172 172 172 173 182 180 180 194 198 190 197 207 215 202 193 205 -9999 -9999 -9999 -9999 -9999 -9999 -9999 -9999 -9999 -9999 -9999 -9999 -9999 -9999 -9999 -9999 -9999 -9999 -9999 -9999 -9999 -9999 -9999 -9999 -9999 -9999 -9999 -9999 -9999 -9999 -9999 -9999 -9999 -9999 -9999 -9999 -9999 -9999 -9999 -9999 -9999 -9999 -9999 -9999 -9999
-9999 -9999 -9999 -9999 -9999 -9999 -9999 -9999 -9999 -9999 -9999 -9999 -9999 -9999 -9999 -9999 -9999 -9999 -9999 -9999 -9999 -9999 -9999 -9999 -9999 -9999 -9999 -9999 -9999 -9999 -9999 -9999 -9999 -9999 -9999 -9999 -9999 -9999 -9999 346 313 313 331 325 300 276 255 231 227 223 219 235 247 234 206 186 192 175 172 172 172 189 193 213 209 200 188 186 172 172 172 172 172 172 184 193 182 187 197 207 193 189 203 206 -9999 -9999 -9999 -9999 -9999 -9999 -9999 -9999 -9999 -9999 -9999 -9999 -9999 -9999 -9999 -9999 -9999 -9999 -9999 -9999 -9999 -9999 -9999 -9999 -9999 -9999 -9999 -9999 -9999 -9999 -9999 -9999 -9999 -9999 -9999 -9999 -9999 -9999 -9999 -9999 -9999 -9999 -9999 -9999 -9999
-9999 -9999 -9999 -9999 -9999 -9999 -9999 -9999 -9999 -9999 -9999 -9999 -9999 -9999 -9999 -9999 -9999 -9999 -9999 -9999 -9999 -9999 -9999 -9999 -9999 -9999 -9999 -9999 -9999 -9999 -9999 -9999 -9999 -9999 -9999 -9999 -9999 -9999 -9999 343 329 331 343 330 304 278 263 238 220 211 211 211 220 230 227 216 210 186 181 182 180 189 204 225 211 204 201 202 180 172 172 172 172 172 178 190 176 175 190 195 194 189 200 190 -9999 -9999 -9999 -9999 -9999 -9999 -9999 -9999 -9999 -9999 -9999 -9999 -9999 -9999 -9999 -9999 -9999 -9999 -9999 -9999 -9999 -9999 -9999 -9999 -9999 -9999 -9999 -9999 -9999 -9999 -9999 -9999 -9999 -9999 -9999 -9999 -9999 -9999 -9999 -9999 -9999 -9999 -9999 -9999 -9999
-9999 -9999 -9999 -9999 -9999 -9999 -9999 -9999 -9999 -9999 -9999 -9999 -9999 -9999 -9999 -9999 -9999 -9999 -9999 -9999 -9999 -9999 -9999 -9999 -9999 -9999 -9999 -9999 -9999 -9999 -9999 -9999 -9999 -9999 -9999 -9999 -9999 -9999 -9999 368 371 365 377 355 313 312 296 264 243 219 218 218 210 210 224 245 205 200 191 197 193 196 200 212 196 189 180 188 179 172 172 172 173 172 172 172 172 175 178 183 186 182 184 186 -9999 -9999 -9999 -9999 -9999 -9999 -9999 -9999 -9999 -9999 -9999 -9999 -9999 -9999 -9999 -9999 -9999 -9999 -9999 -9999 -9999 -9999 -9999 -9999 -9999 -9999 -9999 -9999 -9999 -9999 -9999 -9999 -9999 -9999 -9999 -9999 -9999 -9999 -9999 -9999 -9999 -9999 -9999 -9999 -9999
-9999 -9999 -9999 -9999 -9999 -9999 -9999 -9999 -9999 -9999 -9999 -9999 -9999 -9999 -9999 -9999 -9999 -9999 -9999 -9999 -9999 -9999 -9999 -9999 -9999 -9999 -9999 -9999 -9999 -9999 -9999 -9999 -9999 -9999 -9999 -9999 -9999 -9999 -9999 397 407 404 400 366 339 338 319 282 250 230 252 253 225 210 223 241 223 208 199 213 223 233 219 219 215 196 172 172 172 172 172 172 187 194 186 172 172 172 172 180 180 172 174 195 -9999 -9999 -9999 -9999 -9999 -9999 -9999 -9999 -9999 -9999 -9999 -9999 -9999 -9999 -9999 -9999 -9999 -9999 -9999 -9999 -9999 -9999 -9999 -9999 -9999 -9999 -9999 -9999 -9999 -9999 -9999 -9999 -9999 -9999 -9999 -9999 -9999 -9999 -9999 -9999 -9999 -9999 -9999 -9999 -9999
-9999 -9999 -9999 -9999 -9999 -9999 -9999 -9999 -9999 -9999 -9999 -9999 -9999 -9999 -9999 -9999 -9999 -9999 -9999 -9999 -9999 -9999 -9999 -9999 -9999 -9999 -9999 -9999 -9999 -9999 -9999 -9999 -9999 -9999 -9999 -9999 -9999 -9999 -9999 406 433 417 399 378 362 346 320 277 245 241 265 246 229 210 210 213 222 220 227 230 234 230 243 238 227 206 188 172 172 172 175 192 221 221 204 199 196 172 172 172 172 172 175 187 193 195 -9999 -9999 -9999 -9999 -9999 -9999 -9999 -9999 -9999 -9999 -9999 -9999 -9999 -9999 -9999 -9999 -9999 -9999 -9999 -9999 -9999 -9999 -9999 -9999 -9999 -9999 -9999 -9999 -9999 -9999 -9999 -9999 -9999 -9999 -9999 -9999 -9999 -9999 -9999 -9999 -9999 -9999 -9999
-9999 -9999 -9999 -9999 -9999 -9999 -9999 -9999 -9999 -9999 -9999 -9999 -9999 -9999 -9999 -9999 -9999 -9999 -9999 -9999 -9999 -9999 -9999 -9999 -9999 -9999 -9999 -9999 -9999 -9999 -9999 -9999 -9999 -9999 -9999 -9999 -9999 -9999 -9999 410 447 428 405 370 340 320 298 263 244 265 283 272 246 238 214 200 217 226 240 237 214 205 230 218 202 191 172 172 172 172 180 210 236 241 225 205 188 183 177 174 172 172 179 192 180 189 -9999 -9999 -9999 -9999 -9999 -9999 -9999 -9999 -9999 -9999 -9999 -9999 -9999 -9999 -9999 -9999 -9999 -9999 -9999 -9999 -9999 -9999 -9999 -9999 -9999 -9999 -9999 -9999 -9999 -9999 -9999 -9999 -9999 -9999 -9999 -9999 -9999 -9999 -9999 -9999 -9999 -9999 -9999
-9999 -9999 -9999 -9999 -9999 -9999 -9999 -9999 -9999 -9999 -9999 -9999 -9999 -9999 -9999 -9999 -9999 -9999 -9999 -9999 -9999 -9999 -9999 -9999 -9999 -9999 -9999 -9999 -9999 -9999 -9999 -9999 -9999 -9999 -9999 -9999 -9999 440 417 405 434 424 395 353 323 298 269 255 276 294 301 302 282 262 228 206 191 203 207 197 189 172 172 185 172 172 172 172 172 184 203 220 257 257 235 207 197 201 199 181 172 172 172 173 182 -9999 -9999 -9999 -9999 -9999 -9999 -9999 -9999 -9999 -9999 -9999 -9999 -9999 -9999 -9999 -9999 -9999 -9999 -9999 -9999 -9999 -9999 -9999 -9999 -9999 -9999 -9999 -9999 -9999 -9999 -9999 -9999 -9999 -9999 -9999 -9999 -9999 -9999 -9999 -9999 -9999 -9999 -9999 -9999
-9999 -9999 -9999 -9999 -9999 -9999 -9999 -9999 -9999 -9999 -9999 -9999 -9999 -9999 -9999 -9999 -9999 -9999 -9999 -9999 -9999 -9999 -9999 -9999 -9999 -9999 -9999 -9999 -9999 -9999 -9999 -9999 -9999 -9999 -9999 463 446 435 416 401 412 395 366 334 306 288 271 283 324 340 332 332 295 259 240 212 172 179 172 172 172 172 172 172 184 172 172 172 197 207 233 256 267 257 229 206 196 196 194 177 172 172 181 177 183 -9999 -9999 -9999 -9999 -9999 -9999 -9999 -9999 -9999 -9999 -9999 -9999 -9999 -9999 -9999 -9999 -9999 -9999 -9999 -9999 -9999 -9999 -9999 -9999 -9999 -9999 -9999 -9999 -9999 -9999 -9999 -9999 -9999 -9999 -9999 -9999 -9999 -9999 -9999 -9999 -9999 -9999 -9999 -9999
-9999 -9999 -9999 -9999 -9999 -9999 -9999 -9999 -9999 -9999 -9999 -9999 -9999 -9999 -9999 -9999 -9999 -9999 -9999 -9999 -9999 -9999 -9999 -9999 -9999 -9999 -9999 -9999 -9999 -9999 -9999 -9999 -9999 -9999 -9999 448 430 415 403 396 381 356 334 309 304 309 287 320 350 369 374 341 318 286 246 207 172 172 172 177 172 179 191 196 201 200 181 191 217 238 264 291 254 235 222 212 199 188 182 173 172 172 179 181 177 -9999 -9999 -9999 -9999 -9999 -9999 -9999 -9999 -9999 -9999 -9999 -9999 -9999 -9999 -9999 -9999 -9999 -9999 -9999 -9999 -9999 -9999 -9999 -9999 -9999 -9999 -9999 -9999 -9999 -9999 -9999 -9999 -9999 -9999 -9999 -9999 -9999 -9999 -9999 -9999 -9999 -9999 -9999 -9999
-9999 -9999 -9999 -9999 -9999 -9999 -9999 -9999 -9999 -9999 -9999 -9999 -9999 -9999 -9999 -9999 -9999 -9999 -9999 -9999 -9999 -9999 -9999 -9999 -9999 -9999 -9999 -9999 -9999 -9999 -9999 -9999 -9999 -9999 -9999 451 428 402 388 367 370 350 323 304 321 323 312 343 365 387 389 362 334 293 256 241 192 172 172 177 197 210 225 226 -9999 -9999 216 229 250 274 295 311 267 234 207 203 192 184 178 176 172 172 186 190 181 -9999 -9999 -9999 -9999 -9999 -9999 -9999 -9999 -9999 -9999 -9999 -9999 -9999 -9999 -9999 -9999 -9999 -9999 -9999 -9999 -9999 -9999 -9999 -9999 -9999 -9999 -9999 -9999 -9999 -9999 -9999 -9999 -9999 -9999 -9999 -9999 -9999 -9999 -9999 -9999 -9999 -9999 -9999 -9999
-9999 -9999 -9999 -9999 -9999 -9999 -9999 -9999 -9999 -9999 -9999 -9999 -9999 -9999 -9999 -9999 -9999 -9999 -9999 -9999 -9999 -9999 -9999 -9999 -9999 -9999 -9999 -9999 -9999 -9999 -9999 -9999 -9999 -9999 -9999 446 419 389 369 345 349 327 309 307 344 360 353 366 385 408 413 373 338 297 278 257 195 176 172 186 -9999 -9999 -9999 -9999 -9999 -9999 -9999 -9999 -9999 -9999 -9999 295 252 227 209 202 196 193 184 172 172 172 186 -9999 -9999 -9999 -9999 -9999 -9999 -9999 -9999 -9999 -9999 -9999 -9999 -9999 -9999 -9999 -9999 -9999 -9999 -9999 -9999 -9999 -9999 -9999 -9999 -9999 -9999 -9999 -9999 -9999 -9999 -9999 -9999 -9999 -9999 -9999 -9999 -9999 -9999 -9999 -9999 -9999 -9999 -9999 -9999 -9999 -9999
-9999 -9999 -9999 -9999 -9999 -9999 -9999 -9999 -9999 -9999 -9999 -9999 -9999 -9999 -9999 -9999 -9999 -9999 -9999 -9999 -9999 -9999 -9999 -9999 -9999 -9999 -9999 -9999 -9999 -9999 -9999 -9999 -9999 -9999 -9999 -9999 410 386 358 329 317 307 307 331 370 381 380 396 418 434 419 382 353 324 295 279 203 172 172 173 180 -9999 -9999 -9999 -9999 -9999 -9999 -9999 -9999 -9999 -9999 -9999 256 239 218 214 214 200 182 177 172 180 192 -9999 -9999 -9999 -9999 -9999 -9999 -9999 -9999 -9999 -9999 -9999 -9999 -9999 -9999 -9999 -9999 -9999 -9999 -9999 -9999 -9999 -9999 -9999 -9999 -9999 -9999 -9999 -9999 -9999 -9999 -9999 -9999 -9999 -9999 -9999 -9999 -9999 -9999 -9999 -9999 -9999 -9999 -9999 -9999 -9999 -9999
-9999 -9999 -9999 -9999 -9999 -9999 -9999 -9999 -9999 -9999 -9999 -9999 -9999 -9999 -9999 -9999 -9999 -9999 -9999 -9999 -9999 -9999 -9999 -9999 -9999 -9999 -9999 -9999 -9999 -9999 -9999 -9999 -9999 -9999 -9999 -9999 -9999 -9999 364 323 320 335 339 351 365 379 395 418 445 452 435 407 371 345 334 311 224 187 175 159 154 -9999 -9999 -9999 -9999 -9999 -9999 -9999 -9999 -9999 -9999 -9999 -9999 254 231 222 232 226 207 203 199 203 -9999 -9999 -9999 -9999 -9999 -9999 -9999 -9999 -9999 -9999 -9999 -9999 -9999 -9999 -9999 -9999 -9999 -9999 -9999 -9999 -9999 -9999 -9999 -9999 -9999 -9999 -9999 -9999 -9999 -9999 -9999 -9999 -9999 -9999 -9999 -9999 -9999 -9999 -9999 -9999 -9999 -9999 -9999 -9999 -9999 -9999 -9999
-9999 -9999 -9999 -9999 -9999 -9999 -9999 -9999 -9999 -9999 -9999 -9999 -9999 -9999 -9999 -9999 -9999 -9999 -9999 -9999 -9999 -9999 -9999 -9999 -9999 -9999 -9999 -9999 -9999 -9999 -9999 -9999 -9999 -9999 -9999 -9999 -9999 -9999 -9999 345 345 358 368 376 387 398 405 426 457 473 448 410 386 368 342 268 246 215 204 194 189 -9999 -9999 -9999 -9999 -9999 -9999 -9999 -9999 -9999 -9999 -9999 -9999 260 239 245 245 240 228 216 220 219 -9999 -9999 -9999 -9999 -9999 -9999 -9999 -9999 -9999 -9999 -9999 -9999 -9999 -9999 -9999 -9999 -9999 -9999 -9999 -9999 -9999 -9999 -9999 -9999 -9999 -9999 -9999 -9999 -9999 -9999 -9999 -9999 -9999 -9999 -9999 -9999 -9999 -9999 -9999 -9999 -9999 -9999 -9999 -9999 -9999 -9999 -9999
-9999 -9999 -9999 -9999 -9999 -9999 -9999 -9999 -9999 -9999 -9999 -9999 -9999 -9999 -9999 -9999 -9999 -9999 -9999 -9999 -9999 -9999 -9999 -9999 -9999 -9999 -9999 -9999 -9999 -9999 -9999 -9999 -9999 -9999 -9999 -9999 -9999 -9999 -9999 386 367 383 400 414 409 418 428 441 464 470 445 426 405 371 335 293 262 258 251 228 -9999 -9999 -9999 -9999 -9999 -9999 -9999 -9999 -9999 -9999 -9999 -9999 -9999 274 257 264 248 247 244 251 -9999 -9999 -9999 -9999 -9999 -9999 -9999 -9999 -9999 -9999 -9999 -9999 -9999 -9999 -9999 -9999 -9999 -9999 -9999 -9999 -9999 -9999 -9999 -9999 -9999 -9999 -9999 -9999 -9999 -9999 -9999 -9999 -9999 -9999 -9999 -9999 -9999 -9999 -9999 -9999 -9999 -9999 -9999 -9999 -9999 -9999 -9999 -9999 -9999
-9999 -9999 -9999 -9999 -9999 -9999 -9999 -9999 -9999 -9999 -9999 -9999 -9999 -9999 -9999 -9999 -9999 -9999 -9999 -9999 -9999 -9999 -9999 -9999 -9999 -9999 -9999 -9999 -9999 -9999 -9999 -9999 -9999 -9999 -9999 -9999 -9999 -9999 -9999 -9999 -9999 407 434 -9999 429 438 -9999 462 -9999 -9999 458 425 391 362 327 322 295 284 -9999 -9999 -9999 -9999 -9999 -9999 -9999 -9999 -9999 -9999 -9999 -9999 -9999 -9999 -9999 -9999 -9999 268 259 260 251 -9999 -9999 -9999 -9999 -9999 -9999 -9999 -9999 -9999 -9999 -9999 -9999 -9999 -9999 -9999 -9999 -9999 -9999 -9999 -9999 -9999 -9999 -9999 -9999 -9999 -9999 -9999 -9999 -9999 -9999 -9999 -9999 -9999 -9999 -9999 -9999 -9999 -9999 -9999 -9999 -9999 -9999 -9999 -9999 -9999 -9999 -9999 -9999 -9999 -9999
-9999 -9999 -9999 -9999 -9999 -9999 -9999 -9999 -9999 -9999 -9999 -9999 -9999 -9999 -9999 -9999 -9999 -9999 -9999 -9999 -9999 -9999 -9999 -9999 -9999 -9999 -9999 -9999 -9999 -9999 -9999 -9999 -9999 -9999 -9999 -9999 -9999 -9999 -9999 -9999 -9999 -9999 -9999 -9999 -9999 -9999 -9999 -9999 -9999 -9999 449 420 393 369 346 -9999 -9999 -9999 -9999 -9999 -9999 -9999 -9999 -9999 -9999 -9999 -9999 -9999 -9999 -9999 -9999 -9999 -9999 -9999 -9999 -9999 278 291 275 -9999 -9999 -9999 -9999 -9999 -9999 -9999 -9999 -9999 -9999 -9999 -9999 -9999 -9999 -9999 -9999 -9999 -9999 -9999 -9999 -9999 -9999 -9999 -9999 -9999 -9999 -9999 -9999 -9999 -9999 -9999 -9999 -9999 -9999 -9999 -9999 -9999 -9999 -9999 -9999 -9999 -9999 -9999 -9999 -9999 -9999 -9999 -9999 -9999 -9999
-9999 -9999 -9999 -9999 -9999 -9999 -9999 -9999 -9999 -9999 -9999 -9999 -9999 -9999 -9999 -9999 -9999 -9999 -9999 -9999 -9999 -9999 -9999 -9999 -9999 -9999 -9999 -9999 -9999 -9999 -9999 -9999 -9999 -9999 -9999 -9999 -9999 -9999 -9999 -9999 -9999 -9999 -9999 -9999 -9999 -9999 -9999 -9999 -9999 -9999 -9999 434 405 386 -9999 -9999 -9999 -9999 -9999 -9999 -9999 -9999 -9999 -9999 -9999 -9999 -9999 -9999 -9999 -9999 -9999 -9999 -9999 -9999 -9999 -9999 -9999 -9999 -9999 -9999 -9999 -9999 -9999 -9999 -9999 -9999 -9999 -9999 -9999 -9999 -9999 -9999 -9999 -9999 -9999 -9999 -9999 -9999 -9999 -9999 -9999 -9999 -9999 -9999 -9999 -9999 -9999 -9999 -9999 -9999 -9999 -9999 -9999 -9999 -9999 -9999 -9999 -9999 -9999 -9999 -9999 -9999 -9999 -9999 -9999 -9999 -9999 -9999 -9999
-9999 -9999 -9999 -9999 -9999 -9999 -9999 -9999 -9999 -9999 -9999 -9999 -9999 -9999 -9999 -9999 -9999 -9999 -9999 -9999 -9999 -9999 -9999 -9999 -9999 -9999 -9999 -9999 -9999 -9999 -9999 -9999 -9999 -9999 -9999 -9999 -9999 -9999 -9999 -9999 -9999 -9999 -9999 -9999 -9999 -9999 -9999 -9999 -9999 -9999 -9999 436 413 -9999 -9999 -9999 -9999 -9999 -9999 -9999 -9999 -9999 -9999 -9999 -9999 -9999 -9999 -9999 -9999 -9999 -9999 -9999 -9999 -9999 -9999 -9999 -9999 -9999 -9999 -9999 -9999 -9999 -9999 -9999 -9999 -9999 -9999 -9999 -9999 -9999 -9999 -9999 -9999 -9999 -9999 -9999 -9999 -9999 -9999 -9999 -9999 -9999 -9999 -9999 -9999 -9999 -9999 -9999 -9999 -9999 -9999 -9999 -9999 -9999 -9999 -9999 -9999 -9999 -9999 -9999 -9999 -9999 -9999 -9999 -9999 -9999 -9999 -9999 -9999
